0.177636 0.177636 0.177636 0.183341 0.183341 0.189047 0.189047 0.189047 0.194752 0.194752 0.194752 0.200458 0.200458 0.200458 0.200458 0.200458 0.200458 0.206163 0.206163 0.206163 0.206163 0.206163 0.206163 0.206163 0.206163 0.206163 0.200458 0.200458 0.200458 0.200458 0.200458 0.200458 0.200458 0.200458 0.200458 0.200458 0.200458 0.200458 0.200458 0.200458 0.200458 0.200458 0.200458 0.200458 0.194752 0.194752 0.194752 0.194752 0.194752 0.194752 0.200458 0.194752 0.194752 0.200458 0.200458 0.200458 0.200458 0.200458 0.200458 0.200458 0.200458 0.200458 0.200458 0.206163 0.206163 0.200458 0.206163 0.206163 0.206163 0.206163 0.206163 0.206163 0.206163 0.206163 0.206163 0.206163 0.206163 0.206163 0.206163 0.206163 0.206163 0.206163 0.206163 0.200458 0.200458 0.200458 0.200458 0.200458 0.200458 0.200458 0.200458 0.200458 0.200458 0.200458 0.200458 0.200458 0.194752 0.194752 0.194752 0.194752 0.194752 0.194752 0.194752 0.194752 0.194752 0.194752 0.200458 0.200458 0.200458 0.200458 0.200458 0.206163 0.206163 0.206163 0.211869 0.211869 0.211869 0.211869 0.211869 0.211869 0.211869 0.211869 0.211869 0.211869 0.211869 0.211869 0.211869 0.211869 0.211869 0.217574 0.217574 0.217574 0.217574 0.217574 0.217574 0.217574 0.217574 0.217574 0.217574 0.217574 0.217574 0.217574 0.211869 0.211869 0.211869 0.211869 0.206163 0.206163 0.206163 0.200458 0.200458 0.194752 0.194752 0.194752 0.194752 0.194752 0.194752 0.194752 0.194752 0.194752 0.200458 0.194752 0.200458 0.200458 0.200458 0.200458 0.200458 0.206163 0.206163 0.206163 0.206163 0.211869 0.211869 0.206163 0.211869 0.211869 0.211869 0.211869 0.217574 0.217574 0.217574 0.217574 0.217574 0.217574 0.217574 0.217574 0.217574 0.217574 0.217574 0.217574 0.217574 0.217574 0.217574 0.217574 0.217574 0.217574 0.217574 0.217574 0.217574 0.211869 0.211869 0.211869 0.211869 0.211869 0.211869 0.211869 0.217574 0.217574 0.217574 0.217574 0.217574 0.217574 0.217574 0.223280 0.217574 0.217574 0.223280 0.223280 0.223280 0.223280 0.223280 0.223280 0.223280 0.228986 0.228986 0.228986 0.228986 0.228986 0.228986 0.228986 0.228986 0.228986 0.228986 0.228986 0.228986 0.228986 0.228986 0.228986 0.228986 0.228986 0.228986 0.223280 0.223280 0.223280 0.217574 0.217574 0.217574 0.217574 0.217574 0.217574 0.217574 0.217574 0.217574 0.217574 0.217574 0.217574 0.217574 0.217574 0.223280 0.223280 0.223280 0.228986 0.228986 0.234691 0.234691 0.234691 0.240397 0.240397 0.240397 0.240397 0.246102 0.246102 0.246102 0.246102 0.246102 0.246102 0.251808 0.251808 0.251808 0.251808 0.251808 0.251808 0.251808 0.251808 0.257513 0.257513 0.257513 0.257513 0.257513 0.257513 0.257513 0.257513 0.257513 0.257513 0.257513 0.257513 0.251808 0.251808 0.251808 0.251808
0.171930 0.171930 0.177636 0.177636 0.183341 0.183341 0.183341 0.189047 0.189047 0.189047 0.194752 0.194752 0.194752 0.200458 0.200458 0.200458 0.200458 0.200458 0.200458 0.206163 0.206163 0.206163 0.206163 0.206163 0.206163 0.200458 0.200458 0.200458 0.200458 0.200458 0.200458 0.200458 0.200458 0.200458 0.200458 0.200458 0.200458 0.200458 0.200458 0.200458 0.200458 0.194752 0.194752 0.200458 0.194752 0.194752 0.194752 0.194752 0.194752 0.194752 0.200458 0.194752 0.194752 0.200458 0.200458 0.200458 0.200458 0.200458 0.200458 0.200458 0.200458 0.200458 0.200458 0.200458 0.200458 0.200458 0.200458 0.200458 0.200458 0.206163 0.206163 0.206163 0.206163 0.206163 0.206163 0.206163 0.206163 0.206163 0.206163 0.206163 0.200458 0.200458 0.200458 0.200458 0.200458 0.200458 0.200458 0.200458 0.200458 0.200458 0.200458 0.200458 0.200458 0.200458 0.194752 0.194752 0.194752 0.194752 0.194752 0.194752 0.194752 0.194752 0.194752 0.194752 0.194752 0.194752 0.200458 0.200458 0.200458 0.200458 0.200458 0.200458 0.206163 0.206163 0.206163 0.206163 0.206163 0.206163 0.206163 0.206163 0.206163 0.206163 0.206163 0.206163 0.206163 0.211869 0.211869 0.211869 0.211869 0.211869 0.211869 0.211869 0.217574 0.217574 0.217574 0.217574 0.217574 0.217574 0.211869 0.211869 0.211869 0.211869 0.211869 0.211869 0.211869 0.206163 0.206163 0.206163 0.200458 0.200458 0.200458 0.194752 0.194752 0.194752 0.194752 0.194752 0.194752 0.194752 0.194752 0.194752 0.200458 0.194752 0.194752 0.200458 0.200458 0.200458 0.200458 0.200458 0.200458 0.200458 0.206163 0.206163 0.206163 0.206163 0.206163 0.211869 0.211869 0.211869 0.211869 0.217574 0.211869 0.217574 0.217574 0.217574 0.217574 0.217574 0.217574 0.217574 0.217574 0.217574 0.217574 0.217574 0.211869 0.211869 0.211869 0.211869 0.217574 0.211869 0.211869 0.211869 0.211869 0.211869 0.211869 0.211869 0.211869 0.211869 0.211869 0.211869 0.211869 0.211869 0.211869 0.217574 0.217574 0.217574 0.217574 0.217574 0.217574 0.217574 0.217574 0.217574 0.217574 0.217574 0.217574 0.223280 0.223280 0.223280 0.223280 0.223280 0.228986 0.228986 0.228986 0.228986 0.228986 0.228986 0.228986 0.228986 0.228986 0.223280 0.223280 0.223280 0.223280 0.223280 0.223280 0.217574 0.217574 0.217574 0.217574 0.217574 0.217574 0.217574 0.217574 0.211869 0.217574 0.217574 0.217574 0.217574 0.217574 0.217574 0.217574 0.223280 0.223280 0.228986 0.228986 0.234691 0.234691 0.234691 0.240397 0.240397 0.240397 0.240397 0.240397 0.246102 0.246102 0.246102 0.246102 0.246102 0.246102 0.246102 0.251808 0.251808 0.251808 0.251808 0.251808 0.251808 0.251808 0.251808 0.251808 0.251808 0.257513 0.257513 0.257513 0.257513 0.251808 0.251808 0.251808 0.251808 0.251808 0.251808 0.246102 0.246102
0.171930 0.171930 0.171930 0.177636 0.177636 0.177636 0.183341 0.183341 0.189047 0.189047 0.189047 0.189047 0.194752 0.194752 0.194752 0.194752 0.194752 0.200458 0.200458 0.200458 0.200458 0.200458 0.200458 0.200458 0.200458 0.200458 0.200458 0.200458 0.200458 0.200458 0.200458 0.200458 0.200458 0.200458 0.200458 0.200458 0.200458 0.200458 0.200458 0.200458 0.200458 0.194752 0.194752 0.194752 0.194752 0.194752 0.194752 0.194752 0.194752 0.194752 0.200458 0.194752 0.194752 0.194752 0.200458 0.200458 0.200458 0.200458 0.194752 0.194752 0.194752 0.194752 0.200458 0.200458 0.200458 0.200458 0.200458 0.200458 0.200458 0.200458 0.200458 0.200458 0.200458 0.200458 0.200458 0.200458 0.200458 0.200458 0.200458 0.200458 0.200458 0.200458 0.200458 0.200458 0.200458 0.200458 0.200458 0.200458 0.200458 0.200458 0.200458 0.200458 0.200458 0.194752 0.194752 0.194752 0.194752 0.194752 0.194752 0.194752 0.194752 0.194752 0.194752 0.194752 0.194752 0.194752 0.200458 0.200458 0.200458 0.200458 0.200458 0.200458 0.200458 0.206163 0.206163 0.206163 0.206163 0.206163 0.206163 0.206163 0.206163 0.206163 0.206163 0.206163 0.206163 0.206163 0.206163 0.206163 0.211869 0.211869 0.211869 0.211869 0.211869 0.211869 0.211869 0.211869 0.211869 0.211869 0.211869 0.211869 0.211869 0.211869 0.211869 0.211869 0.206163 0.206163 0.206163 0.206163 0.200458 0.200458 0.200458 0.194752 0.194752 0.194752 0.194752 0.194752 0.194752 0.194752 0.194752 0.194752 0.194752 0.194752 0.194752 0.200458 0.200458 0.200458 0.200458 0.200458 0.200458 0.200458 0.206163 0.206163 0.206163 0.206163 0.206163 0.206163 0.211869 0.211869 0.211869 0.211869 0.211869 0.211869 0.217574 0.217574 0.217574 0.217574 0.217574 0.217574 0.217574 0.217574 0.217574 0.217574 0.211869 0.211869 0.211869 0.211869 0.211869 0.211869 0.211869 0.211869 0.211869 0.211869 0.211869 0.211869 0.206163 0.206163 0.206163 0.206163 0.206163 0.206163 0.211869 0.211869 0.211869 0.211869 0.211869 0.211869 0.211869 0.217574 0.217574 0.217574 0.211869 0.211869 0.217574 0.217574 0.217574 0.217574 0.223280 0.223280 0.223280 0.223280 0.223280 0.223280 0.223280 0.223280 0.228986 0.223280 0.223280 0.223280 0.223280 0.223280 0.223280 0.223280 0.217574 0.217574 0.217574 0.217574 0.217574 0.217574 0.217574 0.217574 0.217574 0.217574 0.211869 0.217574 0.217574 0.217574 0.217574 0.217574 0.217574 0.223280 0.223280 0.228986 0.228986 0.228986 0.234691 0.234691 0.234691 0.240397 0.240397 0.240397 0.240397 0.240397 0.246102 0.246102 0.246102 0.246102 0.246102 0.246102 0.246102 0.246102 0.246102 0.246102 0.246102 0.246102 0.246102 0.246102 0.246102 0.251808 0.251808 0.251808 0.251808 0.251808 0.251808 0.251808 0.251808 0.251808 0.246102 0.246102 0.246102 0.246102
0.166224 0.171930 0.171930 0.171930 0.171930 0.177636 0.177636 0.183341 0.183341 0.189047 0.189047 0.189047 0.189047 0.194752 0.194752 0.194752 0.194752 0.194752 0.200458 0.200458 0.200458 0.200458 0.200458 0.200458 0.200458 0.200458 0.200458 0.200458 0.200458 0.200458 0.200458 0.200458 0.200458 0.200458 0.200458 0.200458 0.200458 0.200458 0.200458 0.200458 0.200458 0.194752 0.194752 0.194752 0.194752 0.194752 0.194752 0.194752 0.194752 0.194752 0.194752 0.194752 0.194752 0.194752 0.194752 0.194752 0.194752 0.194752 0.194752 0.194752 0.194752 0.194752 0.194752 0.194752 0.194752 0.194752 0.200458 0.200458 0.200458 0.200458 0.200458 0.200458 0.200458 0.200458 0.200458 0.200458 0.200458 0.200458 0.200458 0.200458 0.200458 0.200458 0.200458 0.200458 0.200458 0.200458 0.200458 0.200458 0.200458 0.200458 0.200458 0.200458 0.200458 0.194752 0.194752 0.194752 0.194752 0.189047 0.194752 0.189047 0.194752 0.194752 0.194752 0.194752 0.194752 0.194752 0.194752 0.200458 0.200458 0.194752 0.200458 0.200458 0.200458 0.200458 0.200458 0.206163 0.206163 0.206163 0.206163 0.206163 0.200458 0.200458 0.200458 0.206163 0.206163 0.206163 0.206163 0.206163 0.206163 0.206163 0.206163 0.206163 0.206163 0.206163 0.206163 0.211869 0.211869 0.206163 0.206163 0.206163 0.206163 0.206163 0.206163 0.206163 0.206163 0.206163 0.206163 0.206163 0.200458 0.200458 0.200458 0.194752 0.194752 0.194752 0.194752 0.194752 0.194752 0.194752 0.194752 0.194752 0.194752 0.194752 0.194752 0.200458 0.200458 0.200458 0.200458 0.200458 0.200458 0.200458 0.206163 0.206163 0.206163 0.206163 0.206163 0.206163 0.211869 0.211869 0.211869 0.211869 0.211869 0.211869 0.211869 0.211869 0.211869 0.211869 0.211869 0.211869 0.211869 0.211869 0.211869 0.211869 0.211869 0.211869 0.211869 0.211869 0.211869 0.211869 0.211869 0.211869 0.206163 0.206163 0.206163 0.206163 0.206163 0.206163 0.206163 0.206163 0.206163 0.206163 0.206163 0.206163 0.206163 0.211869 0.206163 0.206163 0.211869 0.211869 0.211869 0.211869 0.211869 0.211869 0.211869 0.211869 0.217574 0.217574 0.217574 0.217574 0.217574 0.217574 0.223280 0.223280 0.223280 0.223280 0.223280 0.223280 0.223280 0.223280 0.223280 0.223280 0.217574 0.217574 0.217574 0.217574 0.217574 0.217574 0.217574 0.211869 0.217574 0.217574 0.217574 0.217574 0.211869 0.217574 0.217574 0.217574 0.217574 0.217574 0.217574 0.223280 0.223280 0.228986 0.228986 0.228986 0.228986 0.228986 0.234691 0.234691 0.234691 0.234691 0.240397 0.240397 0.240397 0.240397 0.240397 0.246102 0.246102 0.246102 0.246102 0.246102 0.246102 0.246102 0.246102 0.246102 0.246102 0.246102 0.246102 0.246102 0.246102 0.246102 0.246102 0.246102 0.246102 0.246102 0.246102 0.246102 0.246102 0.246102 0.246102 0.246102
0.166224 0.166224 0.171930 0.171930 0.171930 0.177636 0.177636 0.177636 0.183341 0.183341 0.189047 0.189047 0.189047 0.189047 0.189047 0.194752 0.194752 0.194752 0.194752 0.200458 0.200458 0.200458 0.200458 0.200458 0.200458 0.200458 0.200458 0.200458 0.200458 0.200458 0.200458 0.200458 0.200458 0.200458 0.200458 0.200458 0.200458 0.200458 0.200458 0.200458 0.200458 0.200458 0.194752 0.200458 0.194752 0.194752 0.194752 0.194752 0.194752 0.194752 0.194752 0.194752 0.194752 0.194752 0.194752 0.194752 0.194752 0.189047 0.189047 0.189047 0.189047 0.194752 0.194752 0.194752 0.194752 0.194752 0.194752 0.200458 0.200458 0.200458 0.200458 0.200458 0.200458 0.200458 0.200458 0.200458 0.200458 0.200458 0.200458 0.200458 0.200458 0.200458 0.200458 0.200458 0.200458 0.200458 0.200458 0.200458 0.200458 0.200458 0.200458 0.200458 0.194752 0.194752 0.194752 0.194752 0.194752 0.189047 0.189047 0.189047 0.189047 0.194752 0.194752 0.194752 0.194752 0.194752 0.194752 0.194752 0.194752 0.194752 0.194752 0.200458 0.200458 0.200458 0.200458 0.200458 0.200458 0.200458 0.200458 0.200458 0.200458 0.200458 0.200458 0.200458 0.200458 0.200458 0.200458 0.200458 0.206163 0.206163 0.206163 0.206163 0.206163 0.206163 0.206163 0.206163 0.206163 0.206163 0.206163 0.206163 0.206163 0.206163 0.206163 0.206163 0.206163 0.206163 0.206163 0.206163 0.200458 0.200458 0.194752 0.194752 0.194752 0.194752 0.194752 0.189047 0.189047 0.189047 0.189047 0.194752 0.194752 0.189047 0.194752 0.194752 0.194752 0.200458 0.200458 0.200458 0.200458 0.200458 0.200458 0.206163 0.206163 0.206163 0.206163 0.206163 0.206163 0.211869 0.211869 0.211869 0.211869 0.211869 0.211869 0.211869 0.211869 0.211869 0.211869 0.211869 0.211869 0.211869 0.211869 0.211869 0.211869 0.211869 0.211869 0.211869 0.211869 0.211869 0.206163 0.206163 0.206163 0.206163 0.206163 0.200458 0.200458 0.200458 0.200458 0.200458 0.200458 0.200458 0.200458 0.200458 0.206163 0.206163 0.206163 0.206163 0.206163 0.206163 0.206163 0.206163 0.206163 0.206163 0.206163 0.206163 0.211869 0.211869 0.217574 0.217574 0.217574 0.217574 0.217574 0.217574 0.217574 0.223280 0.223280 0.223280 0.223280 0.217574 0.223280 0.217574 0.217574 0.217574 0.217574 0.217574 0.217574 0.217574 0.217574 0.217574 0.217574 0.217574 0.217574 0.211869 0.211869 0.211869 0.211869 0.211869 0.217574 0.217574 0.217574 0.217574 0.217574 0.223280 0.228986 0.223280 0.234691 0.223280 0.228986 0.234691 0.234691 0.234691 0.234691 0.234691 0.234691 0.234691 0.240397 0.240397 0.240397 0.240397 0.246102 0.246102 0.246102 0.246102 0.246102 0.240397 0.240397 0.240397 0.240397 0.246102 0.246102 0.246102 0.246102 0.246102 0.246102 0.246102 0.246102 0.246102 0.246102 0.240397 0.240397 0.240397
0.166224 0.166224 0.166224 0.171930 0.171930 0.171930 0.177636 0.177636 0.177636 0.183341 0.183341 0.189047 0.189047 0.189047 0.189047 0.189047 0.194752 0.194752 0.194752 0.194752 0.200458 0.200458 0.200458 0.200458 0.200458 0.200458 0.200458 0.194752 0.200458 0.194752 0.194752 0.200458 0.200458 0.200458 0.200458 0.200458 0.200458 0.200458 0.200458 0.200458 0.200458 0.200458 0.200458 0.200458 0.194752 0.194752 0.194752 0.189047 0.194752 0.189047 0.189047 0.189047 0.189047 0.189047 0.189047 0.189047 0.189047 0.189047 0.189047 0.189047 0.189047 0.189047 0.189047 0.194752 0.194752 0.194752 0.194752 0.194752 0.194752 0.194752 0.194752 0.194752 0.194752 0.194752 0.194752 0.194752 0.194752 0.200458 0.200458 0.200458 0.200458 0.200458 0.200458 0.200458 0.200458 0.200458 0.200458 0.200458 0.200458 0.200458 0.200458 0.194752 0.194752 0.194752 0.194752 0.194752 0.194752 0.189047 0.189047 0.189047 0.189047 0.189047 0.189047 0.189047 0.189047 0.194752 0.194752 0.194752 0.194752 0.194752 0.194752 0.194752 0.200458 0.200458 0.200458 0.200458 0.200458 0.200458 0.200458 0.200458 0.200458 0.200458 0.200458 0.200458 0.200458 0.200458 0.200458 0.200458 0.200458 0.206163 0.206163 0.206163 0.200458 0.206163 0.206163 0.206163 0.206163 0.200458 0.200458 0.200458 0.206163 0.206163 0.206163 0.206163 0.206163 0.206163 0.206163 0.200458 0.200458 0.200458 0.194752 0.194752 0.194752 0.189047 0.189047 0.189047 0.189047 0.189047 0.189047 0.189047 0.189047 0.189047 0.189047 0.194752 0.194752 0.194752 0.194752 0.194752 0.194752 0.200458 0.200458 0.200458 0.200458 0.200458 0.206163 0.206163 0.206163 0.206163 0.211869 0.211869 0.211869 0.211869 0.211869 0.211869 0.211869 0.211869 0.211869 0.211869 0.211869 0.211869 0.211869 0.211869 0.211869 0.211869 0.211869 0.211869 0.211869 0.206163 0.206163 0.206163 0.206163 0.206163 0.200458 0.200458 0.200458 0.200458 0.200458 0.200458 0.200458 0.200458 0.200458 0.200458 0.200458 0.200458 0.200458 0.200458 0.200458 0.200458 0.200458 0.200458 0.200458 0.200458 0.206163 0.206163 0.206163 0.206163 0.211869 0.211869 0.211869 0.211869 0.217574 0.217574 0.217574 0.217574 0.217574 0.217574 0.217574 0.217574 0.217574 0.217574 0.217574 0.217574 0.217574 0.217574 0.217574 0.217574 0.217574 0.217574 0.217574 0.217574 0.217574 0.211869 0.211869 0.211869 0.211869 0.211869 0.211869 0.217574 0.217574 0.217574 0.217574 0.223280 0.223280 0.223280 0.228986 0.228986 0.228986 0.228986 0.228986 0.228986 0.234691 0.228986 0.234691 0.234691 0.234691 0.234691 0.240397 0.240397 0.240397 0.240397 0.240397 0.240397 0.240397 0.240397 0.240397 0.240397 0.240397 0.240397 0.240397 0.240397 0.240397 0.240397 0.240397 0.240397 0.240397 0.240397 0.240397 0.240397 0.240397 0.240397
0.160519 0.166224 0.166224 0.166224 0.166224 0.171930 0.171930 0.177636 0.177636 0.177636 0.183341 0.183341 0.183341 0.189047 0.189047 0.189047 0.189047 0.194752 0.194752 0.194752 0.194752 0.200458 0.200458 0.200458 0.200458 0.200458 0.200458 0.194752 0.194752 0.194752 0.194752 0.194752 0.194752 0.194752 0.194752 0.200458 0.200458 0.200458 0.200458 0.200458 0.200458 0.200458 0.194752 0.194752 0.194752 0.194752 0.189047 0.189047 0.194752 0.189047 0.189047 0.189047 0.189047 0.189047 0.189047 0.189047 0.189047 0.189047 0.189047 0.189047 0.189047 0.189047 0.189047 0.189047 0.189047 0.189047 0.194752 0.194752 0.194752 0.194752 0.194752 0.194752 0.194752 0.194752 0.194752 0.194752 0.194752 0.194752 0.194752 0.194752 0.200458 0.200458 0.200458 0.200458 0.200458 0.194752 0.200458 0.200458 0.194752 0.200458 0.200458 0.194752 0.194752 0.194752 0.194752 0.194752 0.189047 0.189047 0.189047 0.189047 0.189047 0.189047 0.189047 0.189047 0.189047 0.189047 0.194752 0.194752 0.194752 0.194752 0.194752 0.194752 0.194752 0.194752 0.194752 0.194752 0.194752 0.200458 0.200458 0.200458 0.200458 0.200458 0.200458 0.200458 0.200458 0.200458 0.200458 0.200458 0.200458 0.200458 0.200458 0.200458 0.200458 0.200458 0.200458 0.200458 0.200458 0.200458 0.200458 0.200458 0.200458 0.200458 0.200458 0.200458 0.200458 0.200458 0.200458 0.200458 0.200458 0.194752 0.194752 0.194752 0.189047 0.189047 0.189047 0.189047 0.189047 0.189047 0.189047 0.189047 0.189047 0.189047 0.189047 0.189047 0.194752 0.194752 0.194752 0.194752 0.194752 0.194752 0.200458 0.200458 0.200458 0.200458 0.200458 0.200458 0.206163 0.206163 0.206163 0.206163 0.211869 0.206163 0.211869 0.211869 0.211869 0.206163 0.206163 0.206163 0.211869 0.211869 0.211869 0.211869 0.211869 0.211869 0.211869 0.211869 0.211869 0.206163 0.206163 0.206163 0.206163 0.206163 0.200458 0.200458 0.200458 0.200458 0.200458 0.200458 0.194752 0.194752 0.194752 0.200458 0.200458 0.194752 0.194752 0.194752 0.200458 0.200458 0.194752 0.194752 0.194752 0.200458 0.200458 0.200458 0.200458 0.200458 0.206163 0.206163 0.211869 0.211869 0.211869 0.211869 0.217574 0.217574 0.217574 0.217574 0.217574 0.217574 0.217574 0.217574 0.217574 0.217574 0.217574 0.217574 0.217574 0.217574 0.217574 0.217574 0.217574 0.217574 0.217574 0.211869 0.211869 0.211869 0.211869 0.211869 0.211869 0.211869 0.217574 0.217574 0.217574 0.217574 0.223280 0.223280 0.223280 0.223280 0.223280 0.223280 0.228986 0.228986 0.228986 0.228986 0.228986 0.228986 0.228986 0.228986 0.234691 0.234691 0.234691 0.234691 0.234691 0.240397 0.234691 0.234691 0.234691 0.234691 0.234691 0.234691 0.234691 0.240397 0.240397 0.240397 0.240397 0.240397 0.240397 0.234691 0.234691 0.234691 0.234691 0.234691
0.160519 0.160519 0.160519 0.166224 0.166224 0.166224 0.171930 0.171930 0.171930 0.177636 0.177636 0.183341 0.183341 0.183341 0.189047 0.189047 0.189047 0.189047 0.194752 0.194752 0.194752 0.194752 0.194752 0.194752 0.194752 0.194752 0.194752 0.194752 0.194752 0.194752 0.194752 0.194752 0.194752 0.194752 0.194752 0.194752 0.194752 0.194752 0.200458 0.200458 0.194752 0.194752 0.194752 0.194752 0.194752 0.194752 0.189047 0.189047 0.189047 0.189047 0.189047 0.189047 0.189047 0.189047 0.189047 0.189047 0.183341 0.183341 0.183341 0.183341 0.183341 0.183341 0.189047 0.189047 0.189047 0.189047 0.189047 0.189047 0.194752 0.194752 0.194752 0.194752 0.194752 0.194752 0.194752 0.194752 0.194752 0.194752 0.194752 0.194752 0.194752 0.194752 0.194752 0.194752 0.200458 0.194752 0.194752 0.194752 0.194752 0.194752 0.194752 0.194752 0.194752 0.194752 0.194752 0.194752 0.189047 0.189047 0.189047 0.189047 0.189047 0.189047 0.189047 0.189047 0.189047 0.189047 0.194752 0.189047 0.189047 0.189047 0.189047 0.194752 0.194752 0.194752 0.194752 0.194752 0.194752 0.194752 0.194752 0.194752 0.194752 0.194752 0.194752 0.200458 0.200458 0.200458 0.200458 0.200458 0.200458 0.200458 0.200458 0.200458 0.200458 0.200458 0.200458 0.200458 0.200458 0.200458 0.200458 0.200458 0.200458 0.200458 0.200458 0.200458 0.200458 0.200458 0.200458 0.200458 0.194752 0.194752 0.194752 0.189047 0.189047 0.189047 0.189047 0.189047 0.189047 0.189047 0.189047 0.189047 0.189047 0.189047 0.189047 0.189047 0.189047 0.189047 0.194752 0.194752 0.194752 0.194752 0.194752 0.194752 0.200458 0.200458 0.200458 0.200458 0.200458 0.206163 0.206163 0.206163 0.206163 0.206163 0.206163 0.206163 0.206163 0.206163 0.206163 0.206163 0.206163 0.206163 0.206163 0.206163 0.206163 0.206163 0.206163 0.211869 0.211869 0.206163 0.206163 0.206163 0.206163 0.200458 0.200458 0.200458 0.200458 0.194752 0.194752 0.194752 0.194752 0.194752 0.194752 0.194752 0.194752 0.194752 0.194752 0.194752 0.194752 0.194752 0.194752 0.194752 0.194752 0.194752 0.194752 0.200458 0.200458 0.200458 0.200458 0.206163 0.206163 0.206163 0.211869 0.211869 0.211869 0.211869 0.211869 0.211869 0.217574 0.217574 0.217574 0.217574 0.217574 0.217574 0.217574 0.217574 0.217574 0.217574 0.217574 0.217574 0.217574 0.217574 0.217574 0.211869 0.211869 0.211869 0.211869 0.211869 0.211869 0.211869 0.217574 0.217574 0.217574 0.217574 0.217574 0.223280 0.223280 0.223280 0.223280 0.223280 0.223280 0.223280 0.223280 0.223280 0.223280 0.223280 0.228986 0.228986 0.228986 0.228986 0.228986 0.228986 0.234691 0.234691 0.234691 0.234691 0.234691 0.234691 0.234691 0.234691 0.234691 0.234691 0.234691 0.234691 0.234691 0.234691 0.234691 0.234691 0.234691 0.228986 0.228986 0.228986
0.160519 0.160519 0.160519 0.160519 0.166224 0.166224 0.166224 0.166224 0.171930 0.171930 0.177636 0.177636 0.177636 0.183341 0.183341 0.189047 0.189047 0.189047 0.189047 0.189047 0.189047 0.194752 0.194752 0.194752 0.194752 0.194752 0.194752 0.194752 0.194752 0.194752 0.194752 0.194752 0.194752 0.194752 0.194752 0.194752 0.194752 0.194752 0.194752 0.194752 0.194752 0.194752 0.194752 0.194752 0.194752 0.194752 0.189047 0.189047 0.189047 0.189047 0.189047 0.189047 0.189047 0.183341 0.183341 0.183341 0.183341 0.183341 0.183341 0.177636 0.183341 0.183341 0.183341 0.183341 0.189047 0.189047 0.189047 0.189047 0.189047 0.189047 0.189047 0.189047 0.189047 0.194752 0.194752 0.194752 0.194752 0.194752 0.194752 0.194752 0.194752 0.194752 0.194752 0.194752 0.194752 0.194752 0.194752 0.194752 0.194752 0.194752 0.194752 0.194752 0.194752 0.194752 0.194752 0.189047 0.189047 0.189047 0.189047 0.189047 0.189047 0.189047 0.189047 0.189047 0.189047 0.189047 0.189047 0.189047 0.189047 0.189047 0.189047 0.189047 0.189047 0.189047 0.189047 0.189047 0.189047 0.194752 0.194752 0.194752 0.194752 0.194752 0.194752 0.194752 0.194752 0.194752 0.194752 0.194752 0.200458 0.200458 0.194752 0.194752 0.194752 0.200458 0.200458 0.200458 0.194752 0.194752 0.194752 0.194752 0.194752 0.194752 0.194752 0.194752 0.200458 0.200458 0.194752 0.194752 0.194752 0.194752 0.189047 0.189047 0.189047 0.189047 0.189047 0.189047 0.183341 0.183341 0.183341 0.183341 0.183341 0.189047 0.189047 0.189047 0.189047 0.189047 0.189047 0.189047 0.194752 0.194752 0.194752 0.194752 0.194752 0.194752 0.200458 0.200458 0.200458 0.200458 0.200458 0.206163 0.206163 0.206163 0.206163 0.206163 0.206163 0.206163 0.206163 0.206163 0.206163 0.206163 0.206163 0.206163 0.206163 0.206163 0.206163 0.206163 0.206163 0.206163 0.206163 0.206163 0.200458 0.200458 0.200458 0.200458 0.194752 0.194752 0.194752 0.194752 0.194752 0.194752 0.194752 0.194752 0.189047 0.189047 0.189047 0.189047 0.189047 0.189047 0.189047 0.189047 0.189047 0.189047 0.194752 0.194752 0.194752 0.194752 0.200458 0.200458 0.200458 0.206163 0.206163 0.206163 0.206163 0.211869 0.211869 0.211869 0.211869 0.211869 0.217574 0.217574 0.217574 0.217574 0.211869 0.217574 0.217574 0.217574 0.217574 0.217574 0.217574 0.217574 0.211869 0.211869 0.211869 0.211869 0.211869 0.211869 0.211869 0.211869 0.211869 0.217574 0.217574 0.217574 0.217574 0.217574 0.217574 0.217574 0.217574 0.217574 0.217574 0.217574 0.223280 0.223280 0.217574 0.217574 0.223280 0.223280 0.223280 0.228986 0.228986 0.228986 0.228986 0.228986 0.228986 0.228986 0.228986 0.228986 0.228986 0.228986 0.228986 0.228986 0.228986 0.228986 0.228986 0.228986 0.228986 0.228986 0.228986 0.228986 0.228986 0.228986
0.154813 0.154813 0.160519 0.160519 0.160519 0.166224 0.166224 0.166224 0.166224 0.171930 0.171930 0.177636 0.177636 0.177636 0.183341 0.183341 0.189047 0.189047 0.189047 0.189047 0.189047 0.189047 0.189047 0.194752 0.194752 0.189047 0.189047 0.189047 0.194752 0.194752 0.194752 0.194752 0.194752 0.194752 0.194752 0.194752 0.194752 0.194752 0.194752 0.194752 0.194752 0.194752 0.194752 0.189047 0.189047 0.189047 0.189047 0.189047 0.189047 0.189047 0.189047 0.183341 0.183341 0.183341 0.183341 0.183341 0.177636 0.177636 0.177636 0.177636 0.177636 0.177636 0.183341 0.183341 0.183341 0.183341 0.189047 0.189047 0.189047 0.189047 0.189047 0.189047 0.189047 0.189047 0.189047 0.189047 0.189047 0.189047 0.194752 0.194752 0.194752 0.194752 0.194752 0.194752 0.194752 0.194752 0.194752 0.194752 0.194752 0.194752 0.194752 0.194752 0.194752 0.189047 0.189047 0.189047 0.189047 0.189047 0.189047 0.189047 0.189047 0.189047 0.189047 0.189047 0.189047 0.189047 0.189047 0.189047 0.189047 0.189047 0.189047 0.189047 0.189047 0.189047 0.189047 0.189047 0.189047 0.189047 0.189047 0.194752 0.194752 0.189047 0.194752 0.194752 0.194752 0.194752 0.194752 0.194752 0.194752 0.194752 0.194752 0.194752 0.194752 0.194752 0.194752 0.194752 0.194752 0.194752 0.194752 0.194752 0.194752 0.194752 0.194752 0.194752 0.194752 0.194752 0.194752 0.194752 0.189047 0.189047 0.189047 0.189047 0.189047 0.189047 0.189047 0.183341 0.183341 0.183341 0.183341 0.183341 0.183341 0.183341 0.183341 0.183341 0.189047 0.189047 0.189047 0.189047 0.189047 0.189047 0.194752 0.194752 0.194752 0.194752 0.194752 0.194752 0.200458 0.200458 0.200458 0.200458 0.200458 0.200458 0.200458 0.206163 0.206163 0.200458 0.200458 0.206163 0.206163 0.206163 0.206163 0.206163 0.206163 0.206163 0.206163 0.206163 0.206163 0.206163 0.206163 0.206163 0.200458 0.200458 0.200458 0.200458 0.194752 0.194752 0.194752 0.194752 0.194752 0.189047 0.189047 0.189047 0.189047 0.189047 0.189047 0.189047 0.189047 0.189047 0.189047 0.183341 0.189047 0.189047 0.189047 0.194752 0.194752 0.194752 0.194752 0.194752 0.200458 0.200458 0.200458 0.206163 0.206163 0.206163 0.206163 0.206163 0.211869 0.211869 0.211869 0.211869 0.211869 0.211869 0.211869 0.211869 0.211869 0.211869 0.217574 0.211869 0.217574 0.211869 0.211869 0.211869 0.211869 0.211869 0.211869 0.211869 0.211869 0.211869 0.211869 0.211869 0.217574 0.217574 0.217574 0.217574 0.217574 0.217574 0.217574 0.217574 0.217574 0.217574 0.217574 0.217574 0.217574 0.217574 0.217574 0.217574 0.223280 0.223280 0.223280 0.223280 0.223280 0.228986 0.228986 0.223280 0.223280 0.223280 0.223280 0.228986 0.228986 0.228986 0.228986 0.228986 0.228986 0.228986 0.228986 0.228986 0.228986 0.223280 0.228986 0.228986
0.154813 0.154813 0.154813 0.160519 0.160519 0.160519 0.166224 0.166224 0.166224 0.166224 0.171930 0.177636 0.177636 0.177636 0.177636 0.183341 0.183341 0.189047 0.189047 0.189047 0.189047 0.189047 0.189047 0.189047 0.189047 0.189047 0.189047 0.189047 0.189047 0.194752 0.194752 0.194752 0.194752 0.194752 0.194752 0.194752 0.194752 0.194752 0.194752 0.194752 0.194752 0.194752 0.189047 0.189047 0.189047 0.189047 0.189047 0.189047 0.189047 0.189047 0.183341 0.183341 0.183341 0.183341 0.177636 0.177636 0.177636 0.171930 0.177636 0.177636 0.177636 0.177636 0.177636 0.177636 0.177636 0.183341 0.183341 0.183341 0.183341 0.183341 0.189047 0.189047 0.189047 0.189047 0.189047 0.189047 0.189047 0.189047 0.189047 0.189047 0.189047 0.189047 0.189047 0.189047 0.189047 0.194752 0.189047 0.189047 0.189047 0.194752 0.189047 0.189047 0.189047 0.189047 0.189047 0.189047 0.189047 0.189047 0.189047 0.189047 0.189047 0.189047 0.189047 0.189047 0.189047 0.189047 0.189047 0.189047 0.183341 0.183341 0.183341 0.183341 0.183341 0.183341 0.189047 0.189047 0.189047 0.189047 0.189047 0.189047 0.189047 0.189047 0.189047 0.189047 0.189047 0.189047 0.189047 0.194752 0.194752 0.189047 0.194752 0.194752 0.194752 0.189047 0.189047 0.189047 0.194752 0.194752 0.194752 0.194752 0.189047 0.189047 0.189047 0.189047 0.194752 0.189047 0.189047 0.189047 0.189047 0.189047 0.189047 0.189047 0.189047 0.189047 0.183341 0.183341 0.183341 0.183341 0.177636 0.177636 0.177636 0.177636 0.177636 0.183341 0.183341 0.183341 0.189047 0.189047 0.189047 0.189047 0.189047 0.189047 0.189047 0.194752 0.194752 0.194752 0.194752 0.194752 0.200458 0.200458 0.200458 0.200458 0.200458 0.200458 0.200458 0.200458 0.200458 0.200458 0.206163 0.206163 0.206163 0.206163 0.206163 0.206163 0.206163 0.206163 0.206163 0.206163 0.206163 0.200458 0.200458 0.200458 0.200458 0.194752 0.194752 0.194752 0.194752 0.189047 0.189047 0.189047 0.189047 0.189047 0.183341 0.183341 0.183341 0.183341 0.183341 0.183341 0.183341 0.183341 0.183341 0.183341 0.189047 0.189047 0.189047 0.189047 0.189047 0.194752 0.194752 0.200458 0.200458 0.200458 0.206163 0.206163 0.206163 0.206163 0.206163 0.206163 0.206163 0.211869 0.211869 0.211869 0.211869 0.211869 0.211869 0.211869 0.211869 0.211869 0.211869 0.211869 0.211869 0.211869 0.211869 0.211869 0.211869 0.211869 0.211869 0.211869 0.211869 0.217574 0.217574 0.217574 0.217574 0.217574 0.217574 0.211869 0.211869 0.211869 0.211869 0.211869 0.211869 0.211869 0.211869 0.211869 0.211869 0.217574 0.217574 0.217574 0.217574 0.217574 0.217574 0.223280 0.223280 0.223280 0.223280 0.223280 0.223280 0.223280 0.223280 0.223280 0.223280 0.223280 0.223280 0.223280 0.223280 0.223280 0.223280 0.223280 0.223280 0.223280
0.154813 0.154813 0.154813 0.154813 0.160519 0.160519 0.160519 0.160519 0.166224 0.166224 0.171930 0.171930 0.177636 0.177636 0.177636 0.177636 0.183341 0.183341 0.183341 0.183341 0.189047 0.189047 0.189047 0.189047 0.189047 0.189047 0.189047 0.189047 0.189047 0.194752 0.189047 0.194752 0.189047 0.189047 0.194752 0.194752 0.194752 0.194752 0.194752 0.189047 0.189047 0.189047 0.189047 0.189047 0.189047 0.189047 0.189047 0.189047 0.189047 0.183341 0.183341 0.183341 0.177636 0.177636 0.177636 0.177636 0.171930 0.171930 0.171930 0.171930 0.171930 0.171930 0.177636 0.177636 0.177636 0.177636 0.177636 0.177636 0.183341 0.183341 0.183341 0.183341 0.189047 0.189047 0.189047 0.189047 0.189047 0.189047 0.189047 0.189047 0.189047 0.189047 0.189047 0.189047 0.189047 0.189047 0.189047 0.189047 0.189047 0.189047 0.189047 0.189047 0.189047 0.189047 0.189047 0.189047 0.189047 0.189047 0.189047 0.189047 0.189047 0.189047 0.189047 0.189047 0.189047 0.189047 0.189047 0.183341 0.183341 0.183341 0.183341 0.183341 0.183341 0.183341 0.183341 0.183341 0.189047 0.189047 0.189047 0.189047 0.189047 0.189047 0.189047 0.189047 0.189047 0.189047 0.189047 0.189047 0.189047 0.189047 0.189047 0.189047 0.189047 0.189047 0.189047 0.189047 0.189047 0.189047 0.189047 0.189047 0.189047 0.189047 0.189047 0.189047 0.189047 0.189047 0.189047 0.189047 0.189047 0.189047 0.189047 0.189047 0.183341 0.183341 0.183341 0.183341 0.183341 0.177636 0.177636 0.177636 0.177636 0.177636 0.177636 0.177636 0.177636 0.183341 0.183341 0.183341 0.183341 0.189047 0.189047 0.189047 0.189047 0.189047 0.189047 0.194752 0.194752 0.194752 0.194752 0.200458 0.200458 0.200458 0.200458 0.200458 0.200458 0.200458 0.200458 0.200458 0.200458 0.200458 0.200458 0.200458 0.206163 0.206163 0.206163 0.206163 0.206163 0.200458 0.200458 0.200458 0.200458 0.200458 0.200458 0.194752 0.194752 0.194752 0.189047 0.189047 0.189047 0.189047 0.189047 0.183341 0.183341 0.183341 0.183341 0.183341 0.183341 0.183341 0.177636 0.177636 0.177636 0.183341 0.183341 0.183341 0.183341 0.183341 0.189047 0.189047 0.194752 0.194752 0.200458 0.200458 0.200458 0.206163 0.206163 0.206163 0.206163 0.206163 0.206163 0.206163 0.206163 0.211869 0.211869 0.211869 0.211869 0.211869 0.211869 0.211869 0.211869 0.211869 0.211869 0.211869 0.211869 0.211869 0.211869 0.211869 0.211869 0.211869 0.211869 0.211869 0.217574 0.211869 0.211869 0.211869 0.211869 0.211869 0.211869 0.206163 0.211869 0.206163 0.211869 0.211869 0.206163 0.206163 0.211869 0.211869 0.211869 0.211869 0.211869 0.217574 0.217574 0.217574 0.217574 0.217574 0.217574 0.217574 0.217574 0.223280 0.223280 0.223280 0.223280 0.223280 0.223280 0.223280 0.223280 0.217574 0.223280 0.223280 0.223280 0.223280
0.154813 0.149108 0.149108 0.154813 0.154813 0.154813 0.160519 0.160519 0.160519 0.166224 0.166224 0.171930 0.171930 0.171930 0.177636 0.177636 0.177636 0.183341 0.183341 0.183341 0.183341 0.183341 0.183341 0.183341 0.183341 0.189047 0.189047 0.189047 0.189047 0.189047 0.189047 0.189047 0.189047 0.189047 0.189047 0.189047 0.189047 0.189047 0.189047 0.189047 0.189047 0.189047 0.189047 0.189047 0.189047 0.189047 0.189047 0.183341 0.183341 0.183341 0.183341 0.177636 0.177636 0.177636 0.171930 0.171930 0.171930 0.166224 0.166224 0.166224 0.171930 0.171930 0.171930 0.171930 0.177636 0.177636 0.177636 0.177636 0.177636 0.177636 0.183341 0.183341 0.183341 0.189047 0.189047 0.189047 0.189047 0.189047 0.189047 0.189047 0.189047 0.189047 0.189047 0.189047 0.189047 0.189047 0.189047 0.189047 0.189047 0.189047 0.189047 0.189047 0.189047 0.189047 0.189047 0.189047 0.189047 0.183341 0.183341 0.189047 0.189047 0.189047 0.189047 0.189047 0.189047 0.189047 0.183341 0.183341 0.183341 0.183341 0.183341 0.183341 0.177636 0.177636 0.183341 0.183341 0.183341 0.183341 0.183341 0.183341 0.183341 0.183341 0.189047 0.189047 0.189047 0.189047 0.189047 0.189047 0.189047 0.189047 0.189047 0.189047 0.189047 0.189047 0.189047 0.189047 0.189047 0.189047 0.189047 0.189047 0.189047 0.189047 0.183341 0.189047 0.189047 0.189047 0.189047 0.183341 0.183341 0.183341 0.183341 0.183341 0.183341 0.183341 0.177636 0.177636 0.177636 0.177636 0.177636 0.177636 0.177636 0.171930 0.177636 0.177636 0.177636 0.177636 0.177636 0.177636 0.183341 0.183341 0.183341 0.183341 0.189047 0.189047 0.189047 0.189047 0.194752 0.194752 0.194752 0.194752 0.194752 0.194752 0.200458 0.200458 0.200458 0.200458 0.200458 0.200458 0.200458 0.200458 0.200458 0.200458 0.200458 0.200458 0.200458 0.200458 0.200458 0.200458 0.200458 0.200458 0.200458 0.194752 0.194752 0.194752 0.194752 0.194752 0.189047 0.189047 0.189047 0.189047 0.183341 0.183341 0.183341 0.183341 0.177636 0.177636 0.177636 0.177636 0.177636 0.177636 0.177636 0.177636 0.177636 0.177636 0.183341 0.183341 0.183341 0.189047 0.189047 0.194752 0.194752 0.200458 0.200458 0.200458 0.206163 0.206163 0.206163 0.206163 0.206163 0.206163 0.206163 0.206163 0.206163 0.211869 0.211869 0.211869 0.211869 0.211869 0.211869 0.211869 0.211869 0.211869 0.211869 0.211869 0.211869 0.211869 0.211869 0.211869 0.211869 0.211869 0.211869 0.211869 0.211869 0.211869 0.211869 0.211869 0.206163 0.206163 0.206163 0.206163 0.206163 0.206163 0.206163 0.200458 0.206163 0.206163 0.206163 0.206163 0.206163 0.206163 0.211869 0.211869 0.211869 0.211869 0.217574 0.217574 0.217574 0.217574 0.217574 0.217574 0.217574 0.217574 0.217574 0.217574 0.217574 0.217574 0.217574 0.217574 0.217574 0.217574
0.149108 0.149108 0.149108 0.149108 0.154813 0.154813 0.154813 0.154813 0.160519 0.160519 0.166224 0.166224 0.166224 0.171930 0.171930 0.171930 0.177636 0.177636 0.177636 0.177636 0.177636 0.183341 0.183341 0.183341 0.183341 0.183341 0.183341 0.189047 0.189047 0.189047 0.189047 0.189047 0.189047 0.189047 0.189047 0.189047 0.189047 0.189047 0.189047 0.189047 0.189047 0.189047 0.183341 0.189047 0.189047 0.183341 0.183341 0.183341 0.183341 0.183341 0.177636 0.177636 0.177636 0.171930 0.171930 0.171930 0.166224 0.166224 0.166224 0.166224 0.166224 0.166224 0.171930 0.171930 0.171930 0.171930 0.177636 0.177636 0.177636 0.177636 0.177636 0.177636 0.183341 0.183341 0.183341 0.183341 0.183341 0.183341 0.183341 0.183341 0.183341 0.183341 0.183341 0.183341 0.183341 0.183341 0.183341 0.189047 0.189047 0.189047 0.189047 0.189047 0.189047 0.183341 0.183341 0.183341 0.183341 0.183341 0.183341 0.183341 0.183341 0.183341 0.183341 0.183341 0.183341 0.183341 0.183341 0.183341 0.177636 0.177636 0.177636 0.177636 0.177636 0.177636 0.177636 0.177636 0.183341 0.183341 0.183341 0.183341 0.183341 0.183341 0.183341 0.183341 0.183341 0.183341 0.183341 0.189047 0.189047 0.189047 0.183341 0.189047 0.189047 0.189047 0.189047 0.189047 0.183341 0.183341 0.183341 0.183341 0.183341 0.183341 0.183341 0.183341 0.183341 0.183341 0.183341 0.183341 0.183341 0.183341 0.183341 0.183341 0.177636 0.177636 0.177636 0.177636 0.177636 0.177636 0.171930 0.171930 0.171930 0.171930 0.171930 0.177636 0.177636 0.177636 0.177636 0.177636 0.177636 0.183341 0.183341 0.183341 0.183341 0.183341 0.189047 0.189047 0.189047 0.194752 0.194752 0.194752 0.194752 0.194752 0.194752 0.194752 0.194752 0.194752 0.194752 0.194752 0.200458 0.200458 0.200458 0.200458 0.200458 0.200458 0.200458 0.200458 0.200458 0.200458 0.194752 0.194752 0.194752 0.194752 0.194752 0.194752 0.194752 0.189047 0.189047 0.189047 0.189047 0.183341 0.183341 0.183341 0.177636 0.177636 0.177636 0.177636 0.177636 0.177636 0.171930 0.171930 0.171930 0.171930 0.177636 0.177636 0.177636 0.177636 0.183341 0.189047 0.189047 0.194752 0.194752 0.200458 0.200458 0.200458 0.200458 0.206163 0.206163 0.206163 0.206163 0.206163 0.206163 0.206163 0.206163 0.211869 0.211869 0.211869 0.211869 0.211869 0.211869 0.211869 0.211869 0.211869 0.211869 0.211869 0.211869 0.211869 0.211869 0.211869 0.211869 0.211869 0.211869 0.211869 0.211869 0.211869 0.211869 0.206163 0.206163 0.206163 0.200458 0.200458 0.200458 0.200458 0.200458 0.200458 0.200458 0.200458 0.200458 0.200458 0.200458 0.200458 0.206163 0.206163 0.211869 0.211869 0.211869 0.211869 0.211869 0.217574 0.217574 0.217574 0.217574 0.217574 0.217574 0.217574 0.217574 0.217574 0.217574 0.217574 0.217574 0.217574
0.149108 0.149108 0.149108 0.149108 0.149108 0.154813 0.154813 0.154813 0.160519 0.160519 0.160519 0.166224 0.166224 0.166224 0.166224 0.171930 0.171930 0.177636 0.177636 0.177636 0.177636 0.177636 0.177636 0.177636 0.177636 0.177636 0.183341 0.183341 0.183341 0.189047 0.183341 0.189047 0.183341 0.183341 0.183341 0.183341 0.183341 0.189047 0.183341 0.183341 0.183341 0.183341 0.183341 0.183341 0.183341 0.183341 0.183341 0.183341 0.177636 0.177636 0.177636 0.177636 0.171930 0.171930 0.166224 0.166224 0.166224 0.166224 0.166224 0.166224 0.166224 0.166224 0.166224 0.166224 0.166224 0.171930 0.171930 0.171930 0.171930 0.177636 0.177636 0.177636 0.177636 0.183341 0.183341 0.183341 0.183341 0.183341 0.183341 0.183341 0.183341 0.183341 0.183341 0.183341 0.183341 0.183341 0.183341 0.183341 0.183341 0.183341 0.183341 0.183341 0.183341 0.183341 0.183341 0.183341 0.183341 0.183341 0.183341 0.183341 0.183341 0.183341 0.183341 0.183341 0.183341 0.183341 0.183341 0.183341 0.177636 0.177636 0.177636 0.177636 0.177636 0.177636 0.177636 0.177636 0.177636 0.177636 0.177636 0.177636 0.177636 0.177636 0.177636 0.177636 0.177636 0.183341 0.183341 0.183341 0.183341 0.183341 0.183341 0.183341 0.183341 0.183341 0.183341 0.183341 0.183341 0.183341 0.183341 0.183341 0.183341 0.183341 0.183341 0.183341 0.177636 0.183341 0.183341 0.183341 0.183341 0.177636 0.177636 0.177636 0.177636 0.177636 0.177636 0.177636 0.171930 0.171930 0.171930 0.171930 0.171930 0.171930 0.171930 0.171930 0.177636 0.177636 0.177636 0.177636 0.177636 0.183341 0.183341 0.183341 0.183341 0.183341 0.183341 0.189047 0.189047 0.189047 0.189047 0.189047 0.194752 0.194752 0.194752 0.194752 0.194752 0.194752 0.194752 0.194752 0.194752 0.194752 0.194752 0.194752 0.200458 0.200458 0.200458 0.200458 0.194752 0.194752 0.194752 0.194752 0.194752 0.189047 0.194752 0.189047 0.189047 0.189047 0.189047 0.189047 0.183341 0.183341 0.183341 0.177636 0.177636 0.177636 0.171930 0.171930 0.171930 0.171930 0.171930 0.171930 0.166224 0.171930 0.171930 0.171930 0.171930 0.177636 0.183341 0.183341 0.189047 0.194752 0.194752 0.194752 0.200458 0.200458 0.200458 0.206163 0.206163 0.206163 0.206163 0.206163 0.206163 0.206163 0.206163 0.206163 0.211869 0.211869 0.211869 0.211869 0.211869 0.211869 0.211869 0.211869 0.211869 0.211869 0.211869 0.211869 0.211869 0.211869 0.211869 0.211869 0.211869 0.211869 0.211869 0.211869 0.206163 0.206163 0.206163 0.200458 0.200458 0.200458 0.200458 0.200458 0.200458 0.194752 0.194752 0.200458 0.194752 0.194752 0.194752 0.200458 0.200458 0.200458 0.206163 0.206163 0.206163 0.206163 0.211869 0.211869 0.211869 0.211869 0.211869 0.211869 0.211869 0.211869 0.211869 0.217574 0.217574 0.217574 0.217574 0.217574
0.143402 0.149108 0.149108 0.149108 0.149108 0.149108 0.154813 0.154813 0.154813 0.160519 0.160519 0.160519 0.160519 0.166224 0.166224 0.166224 0.166224 0.171930 0.171930 0.171930 0.177636 0.177636 0.177636 0.177636 0.177636 0.177636 0.177636 0.183341 0.183341 0.183341 0.183341 0.183341 0.183341 0.183341 0.183341 0.183341 0.183341 0.183341 0.183341 0.183341 0.183341 0.183341 0.183341 0.183341 0.183341 0.183341 0.177636 0.177636 0.177636 0.177636 0.177636 0.171930 0.171930 0.166224 0.166224 0.166224 0.166224 0.160519 0.160519 0.166224 0.166224 0.166224 0.166224 0.166224 0.166224 0.166224 0.166224 0.171930 0.171930 0.171930 0.177636 0.177636 0.177636 0.177636 0.183341 0.183341 0.177636 0.177636 0.177636 0.177636 0.177636 0.177636 0.177636 0.177636 0.177636 0.177636 0.183341 0.183341 0.183341 0.183341 0.183341 0.183341 0.183341 0.183341 0.177636 0.177636 0.177636 0.177636 0.177636 0.177636 0.183341 0.183341 0.183341 0.183341 0.183341 0.183341 0.177636 0.177636 0.177636 0.177636 0.177636 0.177636 0.177636 0.177636 0.177636 0.177636 0.177636 0.177636 0.177636 0.177636 0.177636 0.177636 0.177636 0.177636 0.177636 0.177636 0.177636 0.183341 0.183341 0.183341 0.177636 0.183341 0.183341 0.183341 0.177636 0.177636 0.177636 0.177636 0.177636 0.177636 0.177636 0.177636 0.177636 0.177636 0.177636 0.177636 0.177636 0.177636 0.177636 0.177636 0.177636 0.177636 0.177636 0.171930 0.171930 0.171930 0.171930 0.171930 0.171930 0.171930 0.166224 0.166224 0.171930 0.171930 0.171930 0.171930 0.171930 0.177636 0.177636 0.177636 0.177636 0.177636 0.177636 0.183341 0.183341 0.183341 0.183341 0.183341 0.183341 0.189047 0.189047 0.189047 0.189047 0.189047 0.189047 0.194752 0.194752 0.194752 0.194752 0.194752 0.194752 0.194752 0.194752 0.194752 0.194752 0.194752 0.194752 0.194752 0.194752 0.189047 0.189047 0.189047 0.189047 0.189047 0.189047 0.189047 0.189047 0.183341 0.183341 0.177636 0.177636 0.177636 0.177636 0.171930 0.171930 0.166224 0.166224 0.166224 0.166224 0.166224 0.166224 0.166224 0.166224 0.171930 0.171930 0.171930 0.177636 0.183341 0.183341 0.189047 0.194752 0.194752 0.200458 0.200458 0.200458 0.200458 0.206163 0.206163 0.206163 0.206163 0.206163 0.206163 0.206163 0.206163 0.206163 0.211869 0.211869 0.211869 0.211869 0.211869 0.211869 0.211869 0.217574 0.211869 0.211869 0.211869 0.211869 0.211869 0.211869 0.211869 0.211869 0.206163 0.206163 0.206163 0.206163 0.200458 0.200458 0.200458 0.200458 0.200458 0.194752 0.194752 0.194752 0.194752 0.194752 0.194752 0.194752 0.189047 0.189047 0.194752 0.194752 0.200458 0.200458 0.200458 0.200458 0.206163 0.206163 0.206163 0.206163 0.206163 0.206163 0.211869 0.211869 0.211869 0.211869 0.211869 0.217574 0.217574 0.217574 0.217574
0.143402 0.149108 0.149108 0.149108 0.149108 0.149108 0.149108 0.154813 0.154813 0.154813 0.160519 0.160519 0.160519 0.160519 0.160519 0.166224 0.166224 0.166224 0.166224 0.171930 0.171930 0.177636 0.177636 0.177636 0.177636 0.177636 0.177636 0.177636 0.177636 0.177636 0.177636 0.177636 0.177636 0.177636 0.177636 0.183341 0.183341 0.183341 0.183341 0.183341 0.183341 0.183341 0.183341 0.183341 0.177636 0.177636 0.177636 0.177636 0.177636 0.177636 0.171930 0.171930 0.166224 0.166224 0.166224 0.166224 0.166224 0.160519 0.160519 0.160519 0.160519 0.160519 0.166224 0.166224 0.166224 0.166224 0.166224 0.166224 0.166224 0.171930 0.171930 0.171930 0.177636 0.177636 0.177636 0.177636 0.177636 0.177636 0.177636 0.177636 0.177636 0.177636 0.177636 0.177636 0.177636 0.177636 0.177636 0.183341 0.183341 0.183341 0.177636 0.177636 0.177636 0.177636 0.177636 0.177636 0.177636 0.177636 0.177636 0.177636 0.177636 0.177636 0.177636 0.177636 0.177636 0.177636 0.177636 0.177636 0.177636 0.177636 0.177636 0.177636 0.171930 0.171930 0.171930 0.177636 0.177636 0.177636 0.171930 0.171930 0.171930 0.171930 0.171930 0.171930 0.171930 0.177636 0.177636 0.177636 0.177636 0.177636 0.177636 0.177636 0.177636 0.177636 0.177636 0.177636 0.177636 0.177636 0.177636 0.177636 0.177636 0.177636 0.177636 0.177636 0.177636 0.177636 0.177636 0.177636 0.177636 0.177636 0.171930 0.171930 0.171930 0.171930 0.171930 0.171930 0.166224 0.166224 0.166224 0.166224 0.166224 0.166224 0.166224 0.166224 0.171930 0.171930 0.171930 0.171930 0.171930 0.177636 0.177636 0.177636 0.177636 0.177636 0.183341 0.183341 0.183341 0.183341 0.183341 0.189047 0.189047 0.189047 0.189047 0.189047 0.189047 0.189047 0.189047 0.189047 0.189047 0.189047 0.194752 0.194752 0.194752 0.194752 0.194752 0.189047 0.189047 0.189047 0.189047 0.189047 0.189047 0.189047 0.189047 0.189047 0.183341 0.183341 0.183341 0.177636 0.177636 0.177636 0.177636 0.171930 0.171930 0.171930 0.166224 0.166224 0.166224 0.166224 0.166224 0.166224 0.160519 0.166224 0.166224 0.166224 0.171930 0.171930 0.171930 0.177636 0.183341 0.189047 0.189047 0.194752 0.194752 0.194752 0.200458 0.200458 0.200458 0.206163 0.206163 0.206163 0.206163 0.211869 0.206163 0.206163 0.206163 0.211869 0.211869 0.211869 0.211869 0.211869 0.211869 0.211869 0.211869 0.211869 0.211869 0.211869 0.211869 0.211869 0.211869 0.211869 0.206163 0.206163 0.206163 0.206163 0.200458 0.200458 0.200458 0.200458 0.194752 0.194752 0.194752 0.189047 0.189047 0.189047 0.189047 0.189047 0.189047 0.189047 0.189047 0.189047 0.189047 0.194752 0.194752 0.194752 0.200458 0.200458 0.200458 0.200458 0.200458 0.200458 0.206163 0.206163 0.206163 0.206163 0.211869 0.211869 0.211869 0.217574 0.217574 0.217574
0.143402 0.149108 0.149108 0.149108 0.149108 0.149108 0.149108 0.154813 0.154813 0.154813 0.154813 0.160519 0.160519 0.160519 0.160519 0.160519 0.166224 0.166224 0.166224 0.166224 0.171930 0.171930 0.171930 0.171930 0.171930 0.171930 0.177636 0.177636 0.177636 0.177636 0.177636 0.177636 0.177636 0.177636 0.177636 0.177636 0.177636 0.177636 0.177636 0.177636 0.177636 0.177636 0.177636 0.177636 0.177636 0.177636 0.177636 0.177636 0.177636 0.171930 0.171930 0.171930 0.166224 0.166224 0.166224 0.166224 0.160519 0.160519 0.160519 0.160519 0.160519 0.160519 0.160519 0.160519 0.160519 0.160519 0.166224 0.166224 0.166224 0.166224 0.166224 0.166224 0.171930 0.171930 0.171930 0.177636 0.177636 0.177636 0.177636 0.177636 0.177636 0.177636 0.177636 0.177636 0.177636 0.177636 0.177636 0.177636 0.177636 0.177636 0.177636 0.177636 0.177636 0.177636 0.177636 0.177636 0.177636 0.177636 0.177636 0.177636 0.177636 0.177636 0.177636 0.177636 0.177636 0.177636 0.177636 0.177636 0.177636 0.177636 0.171930 0.171930 0.171930 0.171930 0.171930 0.171930 0.171930 0.171930 0.171930 0.166224 0.171930 0.171930 0.171930 0.171930 0.171930 0.171930 0.171930 0.177636 0.177636 0.177636 0.177636 0.177636 0.177636 0.177636 0.177636 0.177636 0.177636 0.177636 0.177636 0.177636 0.177636 0.177636 0.177636 0.177636 0.177636 0.177636 0.177636 0.171930 0.171930 0.171930 0.171930 0.171930 0.171930 0.166224 0.166224 0.166224 0.166224 0.166224 0.166224 0.166224 0.166224 0.166224 0.166224 0.166224 0.166224 0.166224 0.171930 0.171930 0.171930 0.171930 0.171930 0.171930 0.171930 0.177636 0.177636 0.177636 0.183341 0.183341 0.183341 0.183341 0.183341 0.189047 0.189047 0.189047 0.189047 0.189047 0.189047 0.189047 0.189047 0.189047 0.189047 0.189047 0.189047 0.189047 0.189047 0.189047 0.189047 0.189047 0.189047 0.189047 0.189047 0.183341 0.183341 0.183341 0.183341 0.183341 0.177636 0.177636 0.177636 0.177636 0.171930 0.171930 0.166224 0.166224 0.166224 0.166224 0.166224 0.166224 0.160519 0.160519 0.160519 0.160519 0.166224 0.166224 0.166224 0.171930 0.171930 0.183341 0.183341 0.183341 0.189047 0.189047 0.194752 0.194752 0.200458 0.200458 0.200458 0.200458 0.206163 0.206163 0.206163 0.206163 0.206163 0.206163 0.206163 0.206163 0.211869 0.211869 0.211869 0.211869 0.211869 0.211869 0.211869 0.211869 0.211869 0.211869 0.211869 0.211869 0.211869 0.211869 0.206163 0.206163 0.206163 0.200458 0.200458 0.200458 0.194752 0.194752 0.194752 0.189047 0.189047 0.189047 0.183341 0.183341 0.183341 0.183341 0.183341 0.183341 0.183341 0.183341 0.189047 0.189047 0.189047 0.194752 0.194752 0.200458 0.200458 0.200458 0.200458 0.200458 0.200458 0.200458 0.206163 0.206163 0.206163 0.211869 0.211869 0.211869 0.217574 0.217574
0.143402 0.143402 0.149108 0.149108 0.149108 0.149108 0.149108 0.149108 0.154813 0.154813 0.154813 0.154813 0.154813 0.160519 0.160519 0.160519 0.160519 0.160519 0.166224 0.166224 0.166224 0.166224 0.171930 0.171930 0.171930 0.171930 0.171930 0.171930 0.171930 0.171930 0.171930 0.171930 0.171930 0.171930 0.171930 0.171930 0.177636 0.177636 0.177636 0.177636 0.177636 0.177636 0.177636 0.177636 0.177636 0.171930 0.171930 0.171930 0.171930 0.171930 0.171930 0.166224 0.166224 0.166224 0.166224 0.160519 0.160519 0.160519 0.154813 0.154813 0.160519 0.154813 0.154813 0.154813 0.154813 0.160519 0.160519 0.160519 0.160519 0.166224 0.166224 0.166224 0.166224 0.166224 0.171930 0.171930 0.171930 0.171930 0.171930 0.171930 0.177636 0.177636 0.177636 0.177636 0.177636 0.177636 0.177636 0.177636 0.177636 0.177636 0.177636 0.177636 0.177636 0.177636 0.177636 0.177636 0.177636 0.177636 0.177636 0.177636 0.171930 0.171930 0.171930 0.177636 0.177636 0.177636 0.177636 0.177636 0.177636 0.171930 0.171930 0.171930 0.171930 0.171930 0.171930 0.171930 0.171930 0.166224 0.166224 0.166224 0.166224 0.166224 0.166224 0.166224 0.166224 0.171930 0.171930 0.171930 0.171930 0.171930 0.171930 0.171930 0.171930 0.171930 0.171930 0.171930 0.171930 0.171930 0.171930 0.171930 0.171930 0.171930 0.177636 0.177636 0.171930 0.171930 0.171930 0.171930 0.171930 0.171930 0.171930 0.171930 0.171930 0.166224 0.166224 0.166224 0.166224 0.166224 0.166224 0.166224 0.166224 0.166224 0.166224 0.166224 0.166224 0.166224 0.166224 0.166224 0.166224 0.166224 0.166224 0.171930 0.171930 0.171930 0.171930 0.177636 0.177636 0.177636 0.177636 0.177636 0.183341 0.183341 0.183341 0.183341 0.183341 0.183341 0.183341 0.183341 0.183341 0.183341 0.189047 0.189047 0.189047 0.189047 0.189047 0.189047 0.189047 0.189047 0.189047 0.189047 0.183341 0.183341 0.183341 0.183341 0.183341 0.177636 0.177636 0.177636 0.177636 0.171930 0.171930 0.171930 0.166224 0.166224 0.166224 0.166224 0.160519 0.160519 0.160519 0.160519 0.160519 0.160519 0.166224 0.166224 0.166224 0.166224 0.171930 0.171930 0.183341 0.183341 0.189047 0.189047 0.194752 0.194752 0.194752 0.200458 0.200458 0.200458 0.200458 0.206163 0.206163 0.206163 0.206163 0.206163 0.206163 0.206163 0.206163 0.211869 0.211869 0.211869 0.211869 0.211869 0.211869 0.211869 0.211869 0.211869 0.211869 0.206163 0.206163 0.206163 0.206163 0.206163 0.200458 0.200458 0.200458 0.200458 0.194752 0.189047 0.189047 0.189047 0.183341 0.183341 0.183341 0.183341 0.183341 0.183341 0.177636 0.183341 0.183341 0.183341 0.183341 0.183341 0.189047 0.189047 0.194752 0.194752 0.194752 0.194752 0.194752 0.200458 0.200458 0.200458 0.200458 0.206163 0.206163 0.211869 0.211869 0.211869 0.217574 0.217574
0.143402 0.143402 0.149108 0.149108 0.149108 0.149108 0.149108 0.149108 0.154813 0.154813 0.154813 0.154813 0.154813 0.154813 0.154813 0.160519 0.160519 0.160519 0.160519 0.160519 0.166224 0.166224 0.166224 0.166224 0.166224 0.166224 0.171930 0.171930 0.171930 0.171930 0.171930 0.171930 0.171930 0.171930 0.171930 0.171930 0.171930 0.171930 0.171930 0.171930 0.171930 0.171930 0.171930 0.171930 0.171930 0.171930 0.171930 0.171930 0.166224 0.166224 0.166224 0.166224 0.166224 0.166224 0.160519 0.160519 0.154813 0.154813 0.154813 0.154813 0.154813 0.154813 0.154813 0.154813 0.154813 0.154813 0.154813 0.154813 0.154813 0.160519 0.160519 0.160519 0.166224 0.166224 0.166224 0.166224 0.171930 0.171930 0.171930 0.171930 0.171930 0.171930 0.171930 0.171930 0.177636 0.177636 0.177636 0.177636 0.177636 0.177636 0.177636 0.177636 0.177636 0.171930 0.171930 0.171930 0.171930 0.171930 0.177636 0.171930 0.177636 0.171930 0.177636 0.177636 0.177636 0.177636 0.171930 0.171930 0.171930 0.171930 0.171930 0.171930 0.171930 0.166224 0.166224 0.166224 0.166224 0.166224 0.166224 0.166224 0.166224 0.166224 0.166224 0.166224 0.166224 0.166224 0.166224 0.171930 0.171930 0.166224 0.166224 0.166224 0.171930 0.166224 0.166224 0.166224 0.166224 0.171930 0.171930 0.171930 0.171930 0.171930 0.171930 0.171930 0.171930 0.171930 0.171930 0.171930 0.171930 0.166224 0.166224 0.166224 0.166224 0.166224 0.166224 0.166224 0.166224 0.166224 0.166224 0.166224 0.166224 0.166224 0.166224 0.166224 0.166224 0.166224 0.166224 0.166224 0.166224 0.166224 0.166224 0.166224 0.166224 0.166224 0.171930 0.171930 0.171930 0.171930 0.177636 0.177636 0.177636 0.177636 0.177636 0.177636 0.183341 0.183341 0.183341 0.183341 0.183341 0.183341 0.183341 0.183341 0.183341 0.189047 0.183341 0.189047 0.189047 0.183341 0.183341 0.183341 0.183341 0.183341 0.183341 0.183341 0.177636 0.177636 0.177636 0.177636 0.171930 0.171930 0.166224 0.166224 0.166224 0.166224 0.166224 0.160519 0.160519 0.160519 0.160519 0.154813 0.160519 0.160519 0.160519 0.166224 0.166224 0.166224 0.171930 0.177636 0.177636 0.183341 0.183341 0.189047 0.189047 0.189047 0.194752 0.194752 0.194752 0.200458 0.200458 0.200458 0.200458 0.206163 0.206163 0.206163 0.206163 0.206163 0.206163 0.206163 0.206163 0.206163 0.206163 0.206163 0.211869 0.206163 0.206163 0.206163 0.206163 0.206163 0.206163 0.206163 0.206163 0.200458 0.200458 0.200458 0.194752 0.194752 0.194752 0.189047 0.189047 0.183341 0.183341 0.183341 0.177636 0.177636 0.177636 0.177636 0.177636 0.177636 0.177636 0.177636 0.183341 0.183341 0.183341 0.189047 0.189047 0.189047 0.194752 0.194752 0.194752 0.194752 0.194752 0.200458 0.200458 0.206163 0.206163 0.206163 0.211869 0.211869 0.211869 0.211869
0.143402 0.149108 0.149108 0.149108 0.149108 0.149108 0.149108 0.149108 0.149108 0.154813 0.149108 0.154813 0.154813 0.154813 0.154813 0.154813 0.160519 0.160519 0.160519 0.160519 0.160519 0.160519 0.166224 0.166224 0.166224 0.166224 0.166224 0.166224 0.166224 0.166224 0.166224 0.166224 0.166224 0.166224 0.166224 0.166224 0.166224 0.171930 0.171930 0.171930 0.171930 0.171930 0.171930 0.171930 0.166224 0.166224 0.166224 0.166224 0.166224 0.166224 0.166224 0.160519 0.160519 0.160519 0.160519 0.154813 0.154813 0.154813 0.154813 0.154813 0.154813 0.154813 0.154813 0.154813 0.154813 0.154813 0.154813 0.154813 0.154813 0.154813 0.154813 0.154813 0.160519 0.160519 0.166224 0.166224 0.166224 0.166224 0.171930 0.171930 0.171930 0.171930 0.171930 0.171930 0.171930 0.171930 0.171930 0.171930 0.171930 0.171930 0.171930 0.171930 0.171930 0.171930 0.171930 0.171930 0.171930 0.171930 0.171930 0.171930 0.171930 0.171930 0.171930 0.177636 0.177636 0.171930 0.171930 0.171930 0.171930 0.171930 0.171930 0.166224 0.166224 0.166224 0.166224 0.166224 0.166224 0.166224 0.166224 0.160519 0.160519 0.160519 0.160519 0.160519 0.160519 0.166224 0.166224 0.166224 0.166224 0.166224 0.166224 0.166224 0.166224 0.166224 0.166224 0.166224 0.166224 0.166224 0.166224 0.166224 0.166224 0.171930 0.171930 0.171930 0.166224 0.166224 0.171930 0.171930 0.166224 0.166224 0.166224 0.166224 0.166224 0.166224 0.166224 0.166224 0.166224 0.166224 0.166224 0.166224 0.166224 0.166224 0.166224 0.166224 0.166224 0.166224 0.166224 0.166224 0.166224 0.166224 0.166224 0.166224 0.166224 0.166224 0.166224 0.166224 0.166224 0.166224 0.171930 0.171930 0.177636 0.177636 0.177636 0.177636 0.177636 0.177636 0.177636 0.177636 0.177636 0.177636 0.183341 0.183341 0.183341 0.183341 0.183341 0.183341 0.183341 0.183341 0.183341 0.183341 0.183341 0.183341 0.177636 0.177636 0.177636 0.177636 0.177636 0.171930 0.171930 0.171930 0.166224 0.166224 0.166224 0.166224 0.166224 0.160519 0.160519 0.160519 0.154813 0.154813 0.160519 0.160519 0.160519 0.160519 0.166224 0.166224 0.171930 0.171930 0.177636 0.177636 0.183341 0.183341 0.189047 0.189047 0.189047 0.194752 0.194752 0.194752 0.200458 0.200458 0.200458 0.200458 0.200458 0.200458 0.200458 0.206163 0.206163 0.206163 0.206163 0.206163 0.206163 0.206163 0.206163 0.206163 0.206163 0.206163 0.206163 0.206163 0.206163 0.200458 0.200458 0.200458 0.200458 0.194752 0.194752 0.194752 0.189047 0.189047 0.183341 0.183341 0.183341 0.177636 0.177636 0.177636 0.177636 0.177636 0.177636 0.177636 0.177636 0.177636 0.177636 0.183341 0.183341 0.183341 0.189047 0.189047 0.189047 0.189047 0.189047 0.194752 0.194752 0.200458 0.200458 0.200458 0.200458 0.206163 0.206163 0.211869 0.211869 0.211869
0.149108 0.149108 0.149108 0.149108 0.149108 0.149108 0.149108 0.149108 0.149108 0.154813 0.149108 0.149108 0.154813 0.154813 0.154813 0.154813 0.154813 0.154813 0.154813 0.154813 0.160519 0.160519 0.160519 0.166224 0.166224 0.166224 0.166224 0.166224 0.166224 0.166224 0.166224 0.166224 0.166224 0.166224 0.166224 0.166224 0.166224 0.166224 0.166224 0.166224 0.166224 0.166224 0.166224 0.166224 0.166224 0.166224 0.166224 0.166224 0.166224 0.160519 0.160519 0.160519 0.160519 0.160519 0.154813 0.154813 0.154813 0.154813 0.154813 0.154813 0.149108 0.149108 0.149108 0.149108 0.149108 0.149108 0.149108 0.149108 0.149108 0.154813 0.154813 0.154813 0.154813 0.160519 0.166224 0.166224 0.166224 0.166224 0.166224 0.166224 0.166224 0.166224 0.166224 0.166224 0.171930 0.171930 0.171930 0.171930 0.171930 0.171930 0.171930 0.171930 0.171930 0.171930 0.171930 0.171930 0.171930 0.171930 0.171930 0.171930 0.171930 0.171930 0.171930 0.171930 0.171930 0.171930 0.171930 0.171930 0.166224 0.171930 0.166224 0.166224 0.166224 0.166224 0.166224 0.166224 0.160519 0.160519 0.160519 0.160519 0.160519 0.160519 0.160519 0.160519 0.160519 0.160519 0.160519 0.166224 0.166224 0.160519 0.166224 0.166224 0.166224 0.166224 0.166224 0.166224 0.166224 0.166224 0.166224 0.166224 0.166224 0.166224 0.166224 0.166224 0.166224 0.166224 0.166224 0.166224 0.166224 0.166224 0.166224 0.166224 0.166224 0.166224 0.166224 0.166224 0.166224 0.166224 0.166224 0.160519 0.160519 0.160519 0.166224 0.166224 0.166224 0.166224 0.160519 0.166224 0.166224 0.166224 0.166224 0.160519 0.160519 0.160519 0.166224 0.166224 0.166224 0.166224 0.166224 0.171930 0.171930 0.171930 0.171930 0.171930 0.177636 0.177636 0.177636 0.177636 0.177636 0.177636 0.177636 0.177636 0.177636 0.177636 0.177636 0.183341 0.183341 0.183341 0.177636 0.177636 0.177636 0.177636 0.177636 0.177636 0.177636 0.171930 0.171930 0.171930 0.171930 0.166224 0.166224 0.166224 0.166224 0.166224 0.160519 0.160519 0.160519 0.160519 0.154813 0.154813 0.154813 0.160519 0.160519 0.160519 0.166224 0.166224 0.166224 0.171930 0.177636 0.177636 0.177636 0.183341 0.189047 0.189047 0.189047 0.189047 0.189047 0.194752 0.194752 0.194752 0.200458 0.200458 0.200458 0.200458 0.200458 0.200458 0.206163 0.206163 0.206163 0.206163 0.206163 0.206163 0.206163 0.206163 0.200458 0.206163 0.200458 0.200458 0.200458 0.200458 0.200458 0.200458 0.194752 0.194752 0.189047 0.189047 0.189047 0.183341 0.183341 0.177636 0.177636 0.177636 0.177636 0.171930 0.171930 0.171930 0.171930 0.171930 0.177636 0.177636 0.177636 0.177636 0.177636 0.183341 0.183341 0.189047 0.189047 0.189047 0.189047 0.189047 0.194752 0.194752 0.200458 0.200458 0.200458 0.206163 0.206163 0.206163 0.211869 0.211869
0.143402 0.149108 0.149108 0.149108 0.149108 0.149108 0.149108 0.149108 0.149108 0.149108 0.149108 0.149108 0.149108 0.149108 0.154813 0.154813 0.154813 0.154813 0.154813 0.154813 0.154813 0.160519 0.160519 0.160519 0.160519 0.160519 0.160519 0.166224 0.166224 0.166224 0.166224 0.166224 0.166224 0.166224 0.166224 0.166224 0.166224 0.166224 0.166224 0.166224 0.166224 0.166224 0.166224 0.166224 0.166224 0.166224 0.160519 0.160519 0.160519 0.160519 0.160519 0.154813 0.154813 0.154813 0.154813 0.154813 0.154813 0.149108 0.154813 0.154813 0.149108 0.149108 0.149108 0.149108 0.149108 0.149108 0.149108 0.149108 0.149108 0.149108 0.149108 0.154813 0.154813 0.154813 0.160519 0.160519 0.160519 0.166224 0.166224 0.166224 0.166224 0.166224 0.166224 0.166224 0.166224 0.166224 0.166224 0.166224 0.166224 0.166224 0.166224 0.166224 0.166224 0.166224 0.166224 0.166224 0.166224 0.171930 0.171930 0.166224 0.171930 0.171930 0.171930 0.171930 0.171930 0.171930 0.171930 0.166224 0.166224 0.166224 0.166224 0.166224 0.160519 0.160519 0.160519 0.160519 0.160519 0.160519 0.160519 0.160519 0.154813 0.154813 0.154813 0.154813 0.154813 0.154813 0.160519 0.160519 0.160519 0.160519 0.160519 0.160519 0.160519 0.160519 0.160519 0.160519 0.160519 0.160519 0.160519 0.160519 0.166224 0.166224 0.166224 0.166224 0.166224 0.166224 0.166224 0.166224 0.166224 0.166224 0.166224 0.166224 0.166224 0.166224 0.166224 0.166224 0.160519 0.160519 0.160519 0.160519 0.160519 0.160519 0.160519 0.160519 0.160519 0.160519 0.160519 0.160519 0.160519 0.160519 0.160519 0.160519 0.160519 0.160519 0.160519 0.160519 0.160519 0.166224 0.166224 0.166224 0.166224 0.166224 0.166224 0.171930 0.171930 0.171930 0.171930 0.171930 0.171930 0.171930 0.171930 0.177636 0.177636 0.177636 0.177636 0.177636 0.177636 0.177636 0.177636 0.177636 0.177636 0.177636 0.177636 0.177636 0.171930 0.171930 0.171930 0.171930 0.166224 0.166224 0.166224 0.166224 0.160519 0.160519 0.160519 0.160519 0.154813 0.154813 0.154813 0.154813 0.154813 0.154813 0.160519 0.160519 0.160519 0.166224 0.166224 0.171930 0.171930 0.177636 0.177636 0.177636 0.183341 0.183341 0.189047 0.189047 0.189047 0.189047 0.189047 0.194752 0.194752 0.194752 0.200458 0.200458 0.200458 0.200458 0.200458 0.200458 0.200458 0.200458 0.200458 0.200458 0.200458 0.200458 0.200458 0.200458 0.200458 0.200458 0.200458 0.200458 0.200458 0.194752 0.194752 0.194752 0.189047 0.189047 0.183341 0.183341 0.177636 0.177636 0.177636 0.171930 0.171930 0.171930 0.171930 0.171930 0.171930 0.166224 0.171930 0.171930 0.177636 0.177636 0.177636 0.177636 0.177636 0.183341 0.189047 0.189047 0.189047 0.189047 0.194752 0.194752 0.194752 0.200458 0.200458 0.206163 0.206163 0.206163 0.206163 0.211869
0.143402 0.143402 0.149108 0.149108 0.149108 0.149108 0.149108 0.149108 0.149108 0.149108 0.149108 0.149108 0.149108 0.149108 0.149108 0.149108 0.154813 0.149108 0.149108 0.154813 0.154813 0.154813 0.154813 0.154813 0.154813 0.160519 0.160519 0.160519 0.166224 0.160519 0.160519 0.166224 0.166224 0.166224 0.160519 0.160519 0.160519 0.160519 0.160519 0.166224 0.160519 0.160519 0.160519 0.166224 0.160519 0.160519 0.160519 0.160519 0.160519 0.160519 0.154813 0.154813 0.154813 0.154813 0.154813 0.149108 0.149108 0.149108 0.149108 0.154813 0.149108 0.149108 0.149108 0.149108 0.149108 0.149108 0.149108 0.149108 0.149108 0.149108 0.149108 0.149108 0.154813 0.154813 0.160519 0.160519 0.160519 0.160519 0.160519 0.160519 0.166224 0.166224 0.166224 0.166224 0.166224 0.166224 0.166224 0.166224 0.166224 0.166224 0.166224 0.166224 0.166224 0.166224 0.166224 0.166224 0.166224 0.166224 0.166224 0.166224 0.166224 0.166224 0.166224 0.171930 0.171930 0.166224 0.166224 0.166224 0.166224 0.166224 0.160519 0.160519 0.160519 0.160519 0.160519 0.160519 0.154813 0.154813 0.154813 0.154813 0.154813 0.154813 0.154813 0.154813 0.154813 0.154813 0.154813 0.154813 0.154813 0.154813 0.154813 0.154813 0.154813 0.154813 0.154813 0.160519 0.160519 0.160519 0.160519 0.160519 0.160519 0.166224 0.160519 0.160519 0.160519 0.166224 0.166224 0.166224 0.166224 0.166224 0.160519 0.166224 0.166224 0.166224 0.160519 0.160519 0.160519 0.160519 0.160519 0.160519 0.160519 0.160519 0.160519 0.160519 0.160519 0.160519 0.160519 0.160519 0.160519 0.160519 0.154813 0.154813 0.154813 0.154813 0.160519 0.160519 0.160519 0.160519 0.166224 0.166224 0.166224 0.166224 0.166224 0.166224 0.166224 0.166224 0.166224 0.166224 0.166224 0.166224 0.171930 0.171930 0.171930 0.171930 0.177636 0.171930 0.177636 0.177636 0.177636 0.177636 0.177636 0.171930 0.171930 0.171930 0.171930 0.171930 0.171930 0.166224 0.166224 0.166224 0.166224 0.166224 0.160519 0.160519 0.160519 0.160519 0.160519 0.154813 0.154813 0.154813 0.154813 0.160519 0.160519 0.160519 0.160519 0.166224 0.166224 0.166224 0.171930 0.171930 0.177636 0.177636 0.177636 0.183341 0.183341 0.183341 0.183341 0.189047 0.189047 0.189047 0.194752 0.194752 0.194752 0.194752 0.200458 0.200458 0.200458 0.200458 0.200458 0.200458 0.200458 0.200458 0.200458 0.200458 0.200458 0.200458 0.200458 0.200458 0.200458 0.200458 0.194752 0.194752 0.194752 0.189047 0.189047 0.189047 0.183341 0.183341 0.177636 0.177636 0.171930 0.171930 0.171930 0.171930 0.171930 0.166224 0.166224 0.166224 0.166224 0.171930 0.171930 0.171930 0.177636 0.177636 0.177636 0.183341 0.183341 0.189047 0.189047 0.189047 0.194752 0.194752 0.194752 0.200458 0.200458 0.200458 0.206163 0.206163 0.206163 0.206163
0.143402 0.143402 0.143402 0.149108 0.143402 0.149108 0.149108 0.149108 0.149108 0.149108 0.149108 0.149108 0.149108 0.149108 0.149108 0.149108 0.149108 0.149108 0.149108 0.149108 0.149108 0.154813 0.154813 0.154813 0.154813 0.154813 0.154813 0.160519 0.160519 0.160519 0.160519 0.160519 0.160519 0.160519 0.160519 0.160519 0.160519 0.160519 0.160519 0.160519 0.160519 0.160519 0.160519 0.160519 0.160519 0.160519 0.160519 0.160519 0.160519 0.154813 0.154813 0.154813 0.154813 0.154813 0.154813 0.149108 0.149108 0.149108 0.149108 0.149108 0.149108 0.149108 0.149108 0.149108 0.149108 0.149108 0.149108 0.149108 0.149108 0.149108 0.149108 0.149108 0.149108 0.154813 0.154813 0.154813 0.160519 0.160519 0.160519 0.160519 0.160519 0.160519 0.160519 0.160519 0.160519 0.160519 0.160519 0.160519 0.166224 0.166224 0.166224 0.166224 0.166224 0.166224 0.166224 0.166224 0.166224 0.166224 0.166224 0.166224 0.166224 0.166224 0.166224 0.166224 0.166224 0.166224 0.166224 0.166224 0.166224 0.166224 0.160519 0.160519 0.160519 0.154813 0.154813 0.154813 0.154813 0.154813 0.154813 0.154813 0.154813 0.154813 0.149108 0.149108 0.149108 0.149108 0.149108 0.154813 0.149108 0.149108 0.149108 0.154813 0.154813 0.154813 0.154813 0.154813 0.154813 0.160519 0.160519 0.160519 0.160519 0.160519 0.160519 0.160519 0.160519 0.160519 0.160519 0.160519 0.160519 0.160519 0.160519 0.160519 0.160519 0.160519 0.160519 0.160519 0.160519 0.160519 0.160519 0.160519 0.160519 0.160519 0.160519 0.160519 0.160519 0.160519 0.160519 0.154813 0.154813 0.154813 0.154813 0.154813 0.154813 0.154813 0.154813 0.154813 0.154813 0.160519 0.160519 0.160519 0.160519 0.160519 0.166224 0.166224 0.166224 0.166224 0.166224 0.166224 0.166224 0.166224 0.166224 0.166224 0.166224 0.166224 0.171930 0.171930 0.171930 0.171930 0.171930 0.171930 0.171930 0.171930 0.171930 0.171930 0.171930 0.166224 0.166224 0.166224 0.166224 0.166224 0.166224 0.160519 0.160519 0.160519 0.160519 0.160519 0.160519 0.154813 0.154813 0.154813 0.154813 0.154813 0.160519 0.160519 0.160519 0.166224 0.166224 0.166224 0.171930 0.171930 0.171930 0.171930 0.177636 0.177636 0.177636 0.177636 0.183341 0.183341 0.183341 0.189047 0.189047 0.189047 0.194752 0.194752 0.194752 0.200458 0.200458 0.200458 0.200458 0.200458 0.200458 0.200458 0.194752 0.194752 0.194752 0.200458 0.194752 0.194752 0.200458 0.200458 0.194752 0.194752 0.194752 0.189047 0.189047 0.183341 0.183341 0.177636 0.177636 0.177636 0.171930 0.171930 0.171930 0.166224 0.166224 0.166224 0.166224 0.166224 0.166224 0.166224 0.171930 0.171930 0.171930 0.171930 0.177636 0.183341 0.183341 0.183341 0.189047 0.189047 0.189047 0.194752 0.194752 0.200458 0.200458 0.200458 0.200458 0.206163 0.206163 0.206163
0.143402 0.143402 0.143402 0.143402 0.143402 0.143402 0.143402 0.149108 0.149108 0.149108 0.149108 0.149108 0.149108 0.149108 0.149108 0.149108 0.149108 0.149108 0.149108 0.149108 0.149108 0.149108 0.149108 0.149108 0.149108 0.154813 0.154813 0.154813 0.154813 0.154813 0.154813 0.160519 0.160519 0.160519 0.154813 0.154813 0.154813 0.154813 0.154813 0.154813 0.154813 0.154813 0.160519 0.160519 0.160519 0.160519 0.160519 0.160519 0.154813 0.154813 0.154813 0.154813 0.154813 0.154813 0.149108 0.149108 0.149108 0.149108 0.149108 0.149108 0.149108 0.149108 0.149108 0.149108 0.143402 0.143402 0.143402 0.149108 0.149108 0.149108 0.149108 0.149108 0.149108 0.154813 0.154813 0.154813 0.154813 0.154813 0.154813 0.154813 0.154813 0.154813 0.154813 0.160519 0.160519 0.160519 0.160519 0.160519 0.160519 0.160519 0.160519 0.160519 0.160519 0.160519 0.166224 0.166224 0.166224 0.166224 0.166224 0.166224 0.166224 0.166224 0.166224 0.166224 0.166224 0.166224 0.166224 0.166224 0.166224 0.160519 0.160519 0.154813 0.154813 0.154813 0.154813 0.154813 0.149108 0.149108 0.149108 0.149108 0.149108 0.149108 0.149108 0.149108 0.149108 0.149108 0.149108 0.149108 0.149108 0.149108 0.149108 0.149108 0.149108 0.149108 0.154813 0.154813 0.154813 0.154813 0.154813 0.154813 0.154813 0.160519 0.160519 0.160519 0.160519 0.160519 0.160519 0.160519 0.160519 0.160519 0.160519 0.160519 0.160519 0.160519 0.160519 0.160519 0.160519 0.160519 0.160519 0.160519 0.160519 0.160519 0.160519 0.160519 0.160519 0.160519 0.154813 0.154813 0.154813 0.154813 0.154813 0.154813 0.154813 0.154813 0.154813 0.154813 0.154813 0.154813 0.154813 0.154813 0.160519 0.160519 0.160519 0.160519 0.160519 0.160519 0.160519 0.160519 0.160519 0.160519 0.160519 0.166224 0.166224 0.166224 0.166224 0.166224 0.166224 0.166224 0.166224 0.166224 0.166224 0.166224 0.166224 0.166224 0.166224 0.166224 0.166224 0.166224 0.166224 0.166224 0.160519 0.160519 0.160519 0.160519 0.160519 0.160519 0.154813 0.154813 0.154813 0.154813 0.154813 0.154813 0.154813 0.160519 0.160519 0.160519 0.160519 0.166224 0.166224 0.166224 0.166224 0.171930 0.177636 0.177636 0.177636 0.177636 0.177636 0.177636 0.183341 0.183341 0.183341 0.189047 0.189047 0.189047 0.194752 0.194752 0.194752 0.194752 0.194752 0.194752 0.194752 0.194752 0.194752 0.194752 0.194752 0.194752 0.194752 0.194752 0.194752 0.194752 0.194752 0.194752 0.189047 0.189047 0.189047 0.183341 0.183341 0.177636 0.177636 0.171930 0.171930 0.166224 0.166224 0.166224 0.166224 0.166224 0.166224 0.160519 0.166224 0.166224 0.166224 0.166224 0.166224 0.171930 0.171930 0.177636 0.177636 0.183341 0.183341 0.189047 0.189047 0.189047 0.194752 0.194752 0.200458 0.200458 0.200458 0.206163 0.206163 0.206163
0.143402 0.143402 0.143402 0.143402 0.143402 0.143402 0.143402 0.143402 0.143402 0.149108 0.149108 0.149108 0.149108 0.149108 0.143402 0.143402 0.143402 0.143402 0.143402 0.143402 0.143402 0.149108 0.149108 0.149108 0.149108 0.149108 0.154813 0.154813 0.154813 0.154813 0.154813 0.154813 0.154813 0.154813 0.154813 0.154813 0.154813 0.154813 0.154813 0.154813 0.154813 0.154813 0.154813 0.154813 0.154813 0.154813 0.154813 0.154813 0.154813 0.154813 0.154813 0.154813 0.154813 0.149108 0.149108 0.149108 0.149108 0.149108 0.149108 0.149108 0.149108 0.149108 0.149108 0.149108 0.143402 0.143402 0.143402 0.149108 0.149108 0.149108 0.149108 0.149108 0.149108 0.154813 0.154813 0.154813 0.154813 0.154813 0.154813 0.154813 0.154813 0.154813 0.154813 0.154813 0.154813 0.154813 0.154813 0.154813 0.154813 0.160519 0.160519 0.160519 0.160519 0.160519 0.160519 0.160519 0.166224 0.166224 0.166224 0.166224 0.166224 0.166224 0.166224 0.166224 0.166224 0.166224 0.160519 0.160519 0.160519 0.160519 0.154813 0.154813 0.154813 0.154813 0.154813 0.149108 0.149108 0.149108 0.149108 0.149108 0.143402 0.143402 0.143402 0.143402 0.143402 0.143402 0.143402 0.143402 0.143402 0.143402 0.143402 0.149108 0.149108 0.149108 0.149108 0.154813 0.154813 0.154813 0.154813 0.154813 0.154813 0.154813 0.160519 0.160519 0.160519 0.160519 0.160519 0.160519 0.160519 0.160519 0.160519 0.160519 0.160519 0.160519 0.160519 0.160519 0.160519 0.160519 0.160519 0.160519 0.160519 0.160519 0.160519 0.160519 0.160519 0.154813 0.154813 0.154813 0.154813 0.154813 0.154813 0.154813 0.149108 0.149108 0.149108 0.154813 0.149108 0.154813 0.154813 0.154813 0.154813 0.154813 0.154813 0.154813 0.154813 0.154813 0.154813 0.154813 0.154813 0.154813 0.160519 0.160519 0.160519 0.160519 0.160519 0.160519 0.166224 0.166224 0.166224 0.166224 0.166224 0.166224 0.166224 0.166224 0.166224 0.166224 0.166224 0.166224 0.160519 0.160519 0.160519 0.160519 0.160519 0.160519 0.160519 0.154813 0.154813 0.154813 0.154813 0.154813 0.154813 0.154813 0.154813 0.154813 0.160519 0.160519 0.160519 0.166224 0.166224 0.166224 0.166224 0.171930 0.171930 0.171930 0.171930 0.171930 0.177636 0.177636 0.177636 0.177636 0.183341 0.183341 0.189047 0.189047 0.189047 0.189047 0.189047 0.194752 0.194752 0.194752 0.194752 0.194752 0.194752 0.194752 0.194752 0.194752 0.194752 0.194752 0.194752 0.194752 0.194752 0.189047 0.189047 0.189047 0.183341 0.183341 0.177636 0.177636 0.177636 0.171930 0.171930 0.166224 0.166224 0.166224 0.160519 0.160519 0.160519 0.160519 0.160519 0.160519 0.166224 0.166224 0.166224 0.166224 0.166224 0.171930 0.177636 0.177636 0.177636 0.183341 0.183341 0.189047 0.189047 0.194752 0.194752 0.200458 0.200458 0.200458 0.200458 0.206163
0.143402 0.143402 0.143402 0.143402 0.143402 0.143402 0.143402 0.143402 0.143402 0.143402 0.143402 0.143402 0.143402 0.143402 0.143402 0.143402 0.143402 0.143402 0.143402 0.143402 0.143402 0.143402 0.143402 0.143402 0.143402 0.149108 0.149108 0.149108 0.154813 0.154813 0.154813 0.154813 0.154813 0.154813 0.154813 0.154813 0.154813 0.154813 0.154813 0.154813 0.154813 0.154813 0.154813 0.154813 0.154813 0.154813 0.154813 0.154813 0.154813 0.154813 0.154813 0.149108 0.149108 0.149108 0.149108 0.149108 0.149108 0.149108 0.149108 0.149108 0.149108 0.149108 0.149108 0.149108 0.143402 0.143402 0.143402 0.149108 0.143402 0.143402 0.149108 0.149108 0.149108 0.149108 0.149108 0.154813 0.154813 0.154813 0.154813 0.154813 0.154813 0.154813 0.154813 0.154813 0.154813 0.154813 0.154813 0.154813 0.154813 0.154813 0.154813 0.154813 0.160519 0.160519 0.160519 0.160519 0.160519 0.160519 0.160519 0.160519 0.160519 0.160519 0.166224 0.166224 0.166224 0.160519 0.160519 0.160519 0.160519 0.154813 0.154813 0.154813 0.154813 0.154813 0.149108 0.149108 0.149108 0.143402 0.143402 0.143402 0.143402 0.143402 0.143402 0.143402 0.143402 0.143402 0.143402 0.143402 0.143402 0.143402 0.143402 0.143402 0.143402 0.149108 0.149108 0.154813 0.154813 0.154813 0.154813 0.154813 0.154813 0.154813 0.154813 0.154813 0.154813 0.154813 0.160519 0.160519 0.160519 0.160519 0.160519 0.160519 0.160519 0.160519 0.160519 0.160519 0.160519 0.160519 0.160519 0.160519 0.160519 0.160519 0.160519 0.160519 0.154813 0.154813 0.154813 0.154813 0.154813 0.154813 0.149108 0.149108 0.149108 0.149108 0.149108 0.149108 0.149108 0.149108 0.154813 0.154813 0.154813 0.154813 0.154813 0.154813 0.154813 0.154813 0.154813 0.154813 0.154813 0.154813 0.154813 0.154813 0.154813 0.154813 0.160519 0.160519 0.160519 0.160519 0.160519 0.160519 0.166224 0.166224 0.166224 0.166224 0.166224 0.166224 0.160519 0.160519 0.160519 0.160519 0.160519 0.160519 0.160519 0.160519 0.160519 0.160519 0.154813 0.154813 0.154813 0.154813 0.154813 0.154813 0.154813 0.154813 0.154813 0.160519 0.160519 0.160519 0.166224 0.166224 0.166224 0.166224 0.171930 0.171930 0.171930 0.171930 0.171930 0.171930 0.177636 0.177636 0.177636 0.177636 0.183341 0.183341 0.189047 0.189047 0.189047 0.189047 0.189047 0.189047 0.189047 0.189047 0.189047 0.189047 0.194752 0.194752 0.194752 0.194752 0.194752 0.194752 0.189047 0.189047 0.189047 0.183341 0.183341 0.177636 0.177636 0.171930 0.171930 0.171930 0.166224 0.166224 0.166224 0.160519 0.160519 0.160519 0.160519 0.160519 0.160519 0.160519 0.160519 0.166224 0.160519 0.166224 0.177636 0.166224 0.183341 0.171930 0.177636 0.177636 0.183341 0.189047 0.189047 0.194752 0.194752 0.194752 0.200458 0.200458 0.200458 0.200458
0.143402 0.143402 0.143402 0.143402 0.143402 0.143402 0.143402 0.143402 0.143402 0.143402 0.143402 0.143402 0.143402 0.143402 0.143402 0.143402 0.143402 0.143402 0.143402 0.143402 0.143402 0.143402 0.143402 0.143402 0.143402 0.143402 0.149108 0.149108 0.149108 0.149108 0.149108 0.149108 0.154813 0.154813 0.154813 0.154813 0.149108 0.149108 0.149108 0.149108 0.149108 0.149108 0.154813 0.154813 0.154813 0.154813 0.154813 0.154813 0.154813 0.154813 0.154813 0.149108 0.149108 0.149108 0.149108 0.149108 0.149108 0.149108 0.149108 0.149108 0.149108 0.149108 0.149108 0.149108 0.143402 0.143402 0.143402 0.143402 0.143402 0.143402 0.143402 0.149108 0.149108 0.149108 0.149108 0.149108 0.149108 0.149108 0.149108 0.149108 0.154813 0.154813 0.154813 0.154813 0.154813 0.154813 0.154813 0.154813 0.154813 0.154813 0.154813 0.154813 0.154813 0.154813 0.160519 0.160519 0.160519 0.160519 0.160519 0.160519 0.160519 0.160519 0.160519 0.160519 0.160519 0.160519 0.160519 0.160519 0.154813 0.154813 0.154813 0.154813 0.149108 0.149108 0.149108 0.143402 0.143402 0.143402 0.143402 0.143402 0.137697 0.137697 0.137697 0.137697 0.137697 0.137697 0.143402 0.143402 0.143402 0.143402 0.143402 0.143402 0.143402 0.143402 0.149108 0.149108 0.154813 0.154813 0.154813 0.154813 0.154813 0.154813 0.154813 0.154813 0.160519 0.160519 0.154813 0.154813 0.160519 0.160519 0.160519 0.160519 0.160519 0.160519 0.160519 0.160519 0.160519 0.160519 0.160519 0.160519 0.154813 0.154813 0.160519 0.154813 0.154813 0.154813 0.154813 0.154813 0.154813 0.149108 0.149108 0.149108 0.149108 0.149108 0.149108 0.149108 0.149108 0.149108 0.149108 0.149108 0.149108 0.149108 0.149108 0.149108 0.149108 0.149108 0.149108 0.149108 0.149108 0.149108 0.149108 0.149108 0.149108 0.154813 0.154813 0.154813 0.160519 0.160519 0.160519 0.160519 0.160519 0.160519 0.160519 0.160519 0.160519 0.160519 0.160519 0.160519 0.160519 0.160519 0.160519 0.160519 0.160519 0.160519 0.154813 0.154813 0.154813 0.154813 0.154813 0.154813 0.154813 0.154813 0.154813 0.154813 0.154813 0.154813 0.154813 0.160519 0.160519 0.160519 0.160519 0.166224 0.166224 0.166224 0.171930 0.171930 0.171930 0.171930 0.171930 0.171930 0.171930 0.177636 0.177636 0.177636 0.183341 0.183341 0.183341 0.189047 0.189047 0.189047 0.189047 0.189047 0.189047 0.189047 0.189047 0.189047 0.189047 0.194752 0.194752 0.189047 0.189047 0.189047 0.189047 0.183341 0.183341 0.177636 0.177636 0.171930 0.171930 0.166224 0.166224 0.166224 0.160519 0.160519 0.160519 0.160519 0.160519 0.160519 0.160519 0.160519 0.160519 0.160519 0.160519 0.160519 0.166224 0.166224 0.166224 0.171930 0.171930 0.177636 0.183341 0.183341 0.189047 0.189047 0.194752 0.194752 0.200458 0.200458 0.200458 0.200458
0.143402 0.143402 0.143402 0.143402 0.137697 0.137697 0.137697 0.143402 0.143402 0.143402 0.143402 0.143402 0.143402 0.143402 0.143402 0.143402 0.143402 0.143402 0.143402 0.143402 0.143402 0.143402 0.143402 0.143402 0.143402 0.143402 0.143402 0.143402 0.149108 0.149108 0.149108 0.149108 0.149108 0.149108 0.149108 0.149108 0.149108 0.149108 0.149108 0.149108 0.149108 0.149108 0.149108 0.154813 0.154813 0.154813 0.154813 0.154813 0.154813 0.154813 0.149108 0.149108 0.149108 0.149108 0.149108 0.149108 0.149108 0.149108 0.149108 0.149108 0.149108 0.149108 0.149108 0.143402 0.143402 0.143402 0.143402 0.143402 0.143402 0.143402 0.143402 0.143402 0.143402 0.143402 0.143402 0.149108 0.149108 0.149108 0.149108 0.149108 0.149108 0.149108 0.149108 0.154813 0.154813 0.154813 0.154813 0.154813 0.154813 0.154813 0.154813 0.154813 0.154813 0.154813 0.154813 0.160519 0.160519 0.160519 0.160519 0.160519 0.160519 0.160519 0.160519 0.160519 0.154813 0.160519 0.154813 0.154813 0.154813 0.154813 0.149108 0.149108 0.149108 0.149108 0.149108 0.143402 0.143402 0.143402 0.137697 0.137697 0.137697 0.137697 0.137697 0.137697 0.137697 0.137697 0.137697 0.137697 0.137697 0.137697 0.143402 0.143402 0.143402 0.143402 0.143402 0.149108 0.149108 0.149108 0.154813 0.154813 0.154813 0.154813 0.154813 0.154813 0.154813 0.154813 0.154813 0.154813 0.154813 0.154813 0.154813 0.160519 0.160519 0.160519 0.160519 0.160519 0.160519 0.160519 0.160519 0.160519 0.160519 0.154813 0.154813 0.154813 0.154813 0.154813 0.154813 0.154813 0.149108 0.149108 0.149108 0.149108 0.143402 0.143402 0.143402 0.143402 0.143402 0.143402 0.143402 0.149108 0.149108 0.149108 0.149108 0.149108 0.149108 0.149108 0.143402 0.143402 0.149108 0.149108 0.149108 0.149108 0.149108 0.149108 0.154813 0.154813 0.154813 0.154813 0.154813 0.160519 0.160519 0.160519 0.160519 0.160519 0.160519 0.160519 0.160519 0.160519 0.160519 0.160519 0.160519 0.160519 0.154813 0.154813 0.154813 0.154813 0.154813 0.154813 0.154813 0.154813 0.154813 0.154813 0.154813 0.154813 0.154813 0.160519 0.160519 0.154813 0.160519 0.160519 0.160519 0.160519 0.166224 0.166224 0.166224 0.166224 0.166224 0.166224 0.171930 0.171930 0.171930 0.171930 0.177636 0.177636 0.177636 0.183341 0.183341 0.183341 0.189047 0.189047 0.189047 0.189047 0.189047 0.189047 0.189047 0.189047 0.189047 0.189047 0.189047 0.189047 0.189047 0.183341 0.183341 0.183341 0.183341 0.177636 0.177636 0.171930 0.171930 0.166224 0.166224 0.160519 0.160519 0.160519 0.160519 0.154813 0.154813 0.154813 0.154813 0.154813 0.154813 0.160519 0.160519 0.160519 0.160519 0.166224 0.166224 0.171930 0.171930 0.177636 0.183341 0.183341 0.189047 0.189047 0.189047 0.194752 0.194752 0.200458 0.200458 0.200458
0.143402 0.143402 0.137697 0.137697 0.137697 0.137697 0.137697 0.137697 0.143402 0.143402 0.143402 0.143402 0.143402 0.143402 0.143402 0.143402 0.143402 0.143402 0.143402 0.143402 0.137697 0.143402 0.137697 0.137697 0.137697 0.143402 0.143402 0.143402 0.143402 0.143402 0.143402 0.143402 0.149108 0.149108 0.149108 0.149108 0.149108 0.149108 0.149108 0.149108 0.149108 0.149108 0.149108 0.149108 0.149108 0.149108 0.149108 0.149108 0.149108 0.149108 0.149108 0.149108 0.149108 0.149108 0.149108 0.149108 0.149108 0.149108 0.149108 0.149108 0.149108 0.143402 0.143402 0.143402 0.143402 0.143402 0.143402 0.143402 0.143402 0.143402 0.143402 0.143402 0.143402 0.143402 0.143402 0.143402 0.143402 0.143402 0.149108 0.149108 0.149108 0.149108 0.149108 0.149108 0.149108 0.149108 0.149108 0.149108 0.149108 0.149108 0.154813 0.154813 0.154813 0.154813 0.154813 0.154813 0.154813 0.154813 0.154813 0.154813 0.160519 0.160519 0.154813 0.154813 0.154813 0.154813 0.154813 0.154813 0.154813 0.149108 0.149108 0.149108 0.149108 0.143402 0.143402 0.143402 0.143402 0.137697 0.137697 0.137697 0.137697 0.137697 0.131991 0.131991 0.131991 0.137697 0.137697 0.137697 0.137697 0.137697 0.137697 0.143402 0.143402 0.143402 0.143402 0.149108 0.149108 0.149108 0.149108 0.154813 0.154813 0.154813 0.154813 0.154813 0.154813 0.154813 0.154813 0.154813 0.154813 0.154813 0.154813 0.154813 0.154813 0.154813 0.160519 0.160519 0.160519 0.160519 0.160519 0.160519 0.154813 0.154813 0.154813 0.154813 0.154813 0.154813 0.154813 0.149108 0.149108 0.149108 0.143402 0.143402 0.143402 0.143402 0.143402 0.143402 0.143402 0.143402 0.143402 0.143402 0.143402 0.143402 0.143402 0.143402 0.143402 0.143402 0.143402 0.143402 0.143402 0.143402 0.143402 0.143402 0.143402 0.149108 0.149108 0.149108 0.154813 0.154813 0.154813 0.154813 0.154813 0.160519 0.160519 0.160519 0.160519 0.160519 0.160519 0.160519 0.160519 0.160519 0.160519 0.154813 0.154813 0.154813 0.154813 0.154813 0.154813 0.154813 0.154813 0.154813 0.154813 0.154813 0.154813 0.154813 0.154813 0.154813 0.154813 0.154813 0.154813 0.154813 0.160519 0.160519 0.160519 0.160519 0.160519 0.166224 0.166224 0.166224 0.166224 0.166224 0.166224 0.166224 0.171930 0.177636 0.177636 0.177636 0.177636 0.183341 0.183341 0.183341 0.183341 0.183341 0.189047 0.189047 0.189047 0.189047 0.189047 0.183341 0.189047 0.189047 0.183341 0.183341 0.183341 0.177636 0.177636 0.177636 0.177636 0.171930 0.171930 0.166224 0.166224 0.160519 0.160519 0.154813 0.154813 0.154813 0.154813 0.154813 0.154813 0.154813 0.154813 0.154813 0.154813 0.154813 0.160519 0.166224 0.166224 0.166224 0.171930 0.177636 0.177636 0.183341 0.183341 0.189047 0.189047 0.189047 0.194752 0.194752 0.200458 0.200458
0.143402 0.143402 0.137697 0.137697 0.137697 0.137697 0.137697 0.137697 0.137697 0.143402 0.143402 0.143402 0.143402 0.143402 0.143402 0.143402 0.143402 0.143402 0.143402 0.143402 0.143402 0.143402 0.137697 0.137697 0.137697 0.137697 0.137697 0.137697 0.143402 0.143402 0.143402 0.143402 0.143402 0.143402 0.143402 0.143402 0.143402 0.143402 0.149108 0.149108 0.149108 0.149108 0.149108 0.149108 0.149108 0.149108 0.149108 0.149108 0.149108 0.149108 0.149108 0.149108 0.149108 0.149108 0.149108 0.149108 0.149108 0.149108 0.149108 0.143402 0.143402 0.143402 0.143402 0.143402 0.143402 0.143402 0.143402 0.143402 0.143402 0.143402 0.143402 0.143402 0.143402 0.143402 0.143402 0.143402 0.143402 0.143402 0.143402 0.143402 0.149108 0.149108 0.149108 0.149108 0.149108 0.149108 0.149108 0.149108 0.149108 0.149108 0.149108 0.149108 0.149108 0.154813 0.154813 0.154813 0.154813 0.154813 0.154813 0.154813 0.154813 0.154813 0.154813 0.154813 0.154813 0.154813 0.154813 0.154813 0.149108 0.149108 0.149108 0.143402 0.143402 0.143402 0.143402 0.143402 0.143402 0.137697 0.137697 0.137697 0.137697 0.137697 0.131991 0.131991 0.131991 0.131991 0.137697 0.137697 0.137697 0.137697 0.137697 0.143402 0.143402 0.143402 0.143402 0.143402 0.149108 0.149108 0.149108 0.149108 0.154813 0.154813 0.154813 0.154813 0.154813 0.154813 0.154813 0.154813 0.154813 0.154813 0.154813 0.154813 0.154813 0.154813 0.154813 0.154813 0.154813 0.154813 0.154813 0.154813 0.154813 0.154813 0.154813 0.154813 0.154813 0.149108 0.149108 0.149108 0.149108 0.149108 0.143402 0.143402 0.143402 0.143402 0.143402 0.143402 0.143402 0.143402 0.143402 0.143402 0.143402 0.143402 0.143402 0.143402 0.143402 0.143402 0.143402 0.143402 0.143402 0.143402 0.143402 0.143402 0.143402 0.143402 0.149108 0.149108 0.149108 0.154813 0.154813 0.154813 0.154813 0.154813 0.154813 0.154813 0.154813 0.154813 0.154813 0.154813 0.160519 0.154813 0.154813 0.154813 0.154813 0.154813 0.154813 0.154813 0.154813 0.154813 0.154813 0.154813 0.154813 0.154813 0.154813 0.154813 0.154813 0.154813 0.154813 0.154813 0.154813 0.154813 0.154813 0.160519 0.160519 0.160519 0.160519 0.160519 0.166224 0.166224 0.166224 0.166224 0.166224 0.166224 0.171930 0.171930 0.171930 0.171930 0.177636 0.177636 0.177636 0.183341 0.183341 0.183341 0.183341 0.183341 0.183341 0.183341 0.183341 0.183341 0.183341 0.183341 0.183341 0.183341 0.177636 0.177636 0.177636 0.177636 0.177636 0.171930 0.166224 0.166224 0.160519 0.160519 0.154813 0.154813 0.154813 0.154813 0.149108 0.149108 0.149108 0.154813 0.154813 0.154813 0.154813 0.154813 0.160519 0.160519 0.166224 0.166224 0.171930 0.171930 0.177636 0.177636 0.183341 0.189047 0.189047 0.189047 0.194752 0.194752 0.194752 0.200458
0.143402 0.143402 0.137697 0.137697 0.137697 0.137697 0.137697 0.137697 0.137697 0.137697 0.143402 0.143402 0.143402 0.143402 0.143402 0.143402 0.143402 0.143402 0.137697 0.143402 0.143402 0.137697 0.137697 0.137697 0.137697 0.137697 0.137697 0.137697 0.137697 0.137697 0.137697 0.143402 0.143402 0.143402 0.143402 0.143402 0.143402 0.143402 0.143402 0.143402 0.143402 0.143402 0.143402 0.143402 0.143402 0.149108 0.149108 0.149108 0.149108 0.149108 0.149108 0.149108 0.149108 0.149108 0.149108 0.149108 0.149108 0.143402 0.143402 0.143402 0.143402 0.143402 0.143402 0.143402 0.143402 0.143402 0.143402 0.143402 0.143402 0.143402 0.143402 0.143402 0.143402 0.143402 0.143402 0.143402 0.143402 0.143402 0.143402 0.143402 0.143402 0.149108 0.149108 0.149108 0.149108 0.149108 0.149108 0.149108 0.149108 0.149108 0.149108 0.149108 0.149108 0.149108 0.154813 0.154813 0.154813 0.154813 0.154813 0.154813 0.154813 0.154813 0.154813 0.154813 0.154813 0.149108 0.149108 0.149108 0.149108 0.149108 0.149108 0.149108 0.143402 0.143402 0.143402 0.143402 0.137697 0.137697 0.137697 0.137697 0.131991 0.131991 0.131991 0.131991 0.131991 0.131991 0.131991 0.131991 0.137697 0.137697 0.137697 0.137697 0.143402 0.143402 0.143402 0.143402 0.149108 0.149108 0.149108 0.149108 0.154813 0.149108 0.154813 0.154813 0.154813 0.154813 0.154813 0.149108 0.154813 0.154813 0.154813 0.154813 0.154813 0.154813 0.154813 0.154813 0.154813 0.154813 0.154813 0.154813 0.154813 0.154813 0.154813 0.149108 0.149108 0.149108 0.149108 0.149108 0.143402 0.143402 0.143402 0.143402 0.143402 0.143402 0.143402 0.137697 0.137697 0.137697 0.137697 0.137697 0.137697 0.137697 0.137697 0.143402 0.137697 0.143402 0.143402 0.143402 0.143402 0.143402 0.143402 0.143402 0.143402 0.143402 0.149108 0.149108 0.149108 0.149108 0.154813 0.154813 0.154813 0.154813 0.154813 0.154813 0.154813 0.154813 0.160519 0.160519 0.154813 0.154813 0.154813 0.154813 0.154813 0.154813 0.154813 0.154813 0.154813 0.154813 0.154813 0.154813 0.154813 0.154813 0.154813 0.154813 0.154813 0.154813 0.154813 0.154813 0.154813 0.154813 0.154813 0.154813 0.154813 0.154813 0.160519 0.160519 0.160519 0.160519 0.166224 0.166224 0.166224 0.166224 0.166224 0.166224 0.166224 0.171930 0.171930 0.171930 0.177636 0.177636 0.177636 0.177636 0.183341 0.183341 0.183341 0.177636 0.183341 0.183341 0.183341 0.177636 0.177636 0.177636 0.177636 0.177636 0.177636 0.177636 0.171930 0.166224 0.166224 0.160519 0.160519 0.160519 0.154813 0.154813 0.149108 0.149108 0.149108 0.149108 0.149108 0.149108 0.154813 0.154813 0.154813 0.154813 0.160519 0.160519 0.166224 0.166224 0.166224 0.177636 0.177636 0.177636 0.183341 0.183341 0.189047 0.189047 0.189047 0.194752 0.194752 0.194752
